165 165 166 166 167 167 167 165 163 161 158 155 154 153 152 152 152 152 151 150 148 146 144 142 141 140 140 140 141 141 141 140 139 136 133 130 128 126 127 128 129 131 133 136 138 140 143 146 148 150 150 150 149 147 146 144 142 140 139 139 139 139 139 138 138 138 138 138 138 139 139 138 137 136 134 133 133 133 133 133 133 132 130 127 125 122 119 117 115 113 111 109 107 106 104 103 103 104 105 106 106 106 105 105 105 105 105 106 107 107 108 110 112 114 116 119 122 124 127 130 134 137 140 143 145 147 148 150 152 154 155 157 158 158 158 157 156 156 155 155 155 154 154 153 152 151 151 151 151 152 152 152 152 153 153 154 155 155 155 154 153 152 151 149 147 144 140 137 133 129 126 124 122 121 120 119 119 119 120 121 122 123 123 124 124 124 125 125 126 126 127 127 127 128 128 128 129 129 130 130 130 130 130 130 130 131 131 132 132 133 133 133 134 135 137 140 142 145 148 151 154 156 158 159 161 163 164 166 167 168 170 171 172 173 173 174 174 174 173 173 171 169 167 165 163 161 159 158 158 157 157 158 159 160 162 164 166 169 171 174 176 178 179 179 178 177 175 173 171 171 171 172 174 176 177 176 175 173 171 169 167 164 162 159 156 153 150 148 146 144 141 138 135 132 130 128 126 126 125 125 125 125 126 127 129 131 133 134 135 136 136 136 137 139 141 143 146 149 152 154 156 158 160 161 163 164 164 164 163 161 160 159 158 156 155 154 153 153 152 152 151 150 150 148 147 147 146 146 145 145 145 145 145 145 144 144 143 143 142 142 141 141 140 140 139 138 137 137 136 135 134 134 134 134 134 133 133 132 132 133 133 134 135 136 136 135 135 135 135 136 137 138 138 139 139 139 139 139 139 139 139 140 141 143 145 147 148 149 149 148 146 145 144 144 145 146 148 149 150 149 149 147 146 144 144 143 143 143 142 142 141 140 139 139 138 138 137 135 133 131 128 125 121 118 114 110 106 102 99 97 96 97 98 100 102 105 107 108 110 111 112 114 115 118 120 124 127 131 133 135 136 137 136 136 136 135 135 134 133 131 130 129 128 128 128 127 126 125 123 121 119 118 117 116 115 116 116 117 118 119 119 119 120 120 120 120 119 118 117 116 115 114 114 115 116 117 118 119 120 120 120 119 117 116 115 114 113 112 111 110 110 110 111 113 115 117 118 119 117 115 112 109 105 101 98 95 91 88 85 84 83 83 84 86 88 90 93 95 96 97 98 99 99 100 101 103 104 105 105 104 102 99 97 95 95 95 96 97 98 99 101 104 108 113 118 123 127 130 131 130 129 128 126 125 124 125 126 128 129 130 131 131 131 131 131 133 135 138 142 146 150 154 157 160 162 164 166 167 167 167 167 165 164 163 163 164 165 167 167 168 169 169 170 171 172 173 174 175 175 175
168 169 169 169 169 168 168 166 164 162 160 157 156 155 154 153 152 151 151 149 148 147 146 145 144 144 143 143 143 143 143 142 140 138 135 133 130 129 129 130 131 133 135 137 139 141 144 146 149 150 151 150 150 148 147 145 144 143 141 140 140 139 138 138 138 138 138 138 138 139 139 138 138 137 136 135 134 134 134 135 134 133 131 129 126 123 120 118 116 115 113 111 109 107 105 104 103 103 103 104 104 104 103 103 103 103 104 105 106 107 108 110 111 114 117 120 123 126 129 133 136 138 141 143 145 146 148 150 151 153 155 156 157 157 156 156 155 154 154 153 153 152 151 150 149 148 147 147 147 147 148 148 148 149 150 150 151 151 151 151 150 150 149 148 145 142 138 133 129 126 124 122 122 121 121 120 120 120 120 121 122 122 123 123 124 125 125 126 126 127 127 127 126 126 127 127 128 129 129 130 130 130 130 131 131 132 133 133 134 134 135 135 136 137 139 141 144 147 150 153 156 158 160 163 164 166 168 169 170 171 172 173 174 175 175 175 175 175 175 174 172 170 168 166 163 162 160 159 159 159 159 159 160 161 162 164 166 168 170 173 175 176 177 178 177 176 174 173 172 171 171 173 174 176 176 176 174 172 171 169 167 164 162 158 155 151 147 144 142 140 138 135 133 130 128 126 125 124 123 123 123 123 124 125 127 129 131 132 133 133 133 133 134 136 138 142 146 149 153 155 157 159 160 161 162 163 164 164 164 163 162 161 160 159 158 157 157 156 156 155 155 154 153 152 151 149 148 147 146 145 145 145 145 145 146 146 145 145 145 144 143 142 142 141 141 140 139 139 138 137 135 134 134 133 132 131 130 129 129 129 129 130 131 132 133 133 133 133 134 134 135 136 137 137 137 137 137 137 138 138 138 138 140 142 144 146 148 149 149 149 148 147 146 146 147 148 149 150 150 149 149 147 146 144 143 143 143 142 141 140 139 138 137 136 136 136 136 134 132 129 126 123 119 115 112 109 105 101 98 96 95 96 97 99 101 103 105 107 108 109 110 111 113 115 118 122 126 130 133 135 136 137 136 136 135 135 135 134 133 132 130 129 129 130 130 131 130 130 128 125 123 121 119 117 117 117 118 120 121 122 122 122 122 121 121 120 119 118 117 116 115 114 114 115 115 116 117 118 119 119 118 117 115 113 111 110 109 109 108 108 108 108 109 111 112 114 115 115 114 113 110 107 104 100 97 94 91 89 87 85 85 85 86 86 88 89 91 93 94 95 96 97 98 98 100 101 103 104 105 103 102 100 99 98 97 98 99 100 101 102 104 107 110 115 120 124 128 131 132 131 130 128 126 125 125 125 126 127 128 129 130 130 129 130 130 131 134 137 141 145 149 154 157 160 163 165 166 167 168 168 168 167 166 166 166 168 169 170 171 171 172 172 173 174 175 177 178 178 179 178
171 171 171 171 170 169 168 167 165 163 161 159 157 156 155 154 152 151 150 149 148 148 148 148 147 147 147 146 146 145 144 144 142 140 138 135 133 132 132 133 134 136 137 139 140 142 144 147 149 150 151 150 150 149 148 147 146 145 144 142 141 140 139 138 138 138 138 139 139 139 140 139 139 138 137 136 136 136 136 136 136 135 133 130 127 124 122 119 118 116 114 112 110 108 106 105 103 103 102 102 102 102 101 101 101 101 102 104 105 106 108 110 112 114 117 121 124 128 132 135 138 140 142 143 145 146 148 150 151 153 154 155 156 155 155 154 153 153 152 152 151 150 148 147 146 145 144 144 143 143 143 144 144 145 146 146 147 147 147 148 147 147 147 145 143 139 134 130 126 123 121 121 121 121 122 121 121 120 120 120 121 122 122 123 124 125 126 126 127 127 127 126 126 126 126 126 127 128 129 130 130 130 130 131 132 133 134 135 136 136 137 137 138 140 141 144 146 149 151 154 157 160 163 165 168 170 171 172 172 173 173 174 175 176 176 177 177 177 176 175 174 171 169 166 164 162 161 160 160 160 160 160 160 161 162 163 165 167 169 171 173 174 175 176 175 175 173 172 172 171 171 172 174 175 175 174 173 171 170 168 166 164 161 157 153 149 144 141 139 137 134 133 131 129 127 125 123 122 122 121 121 122 123 124 125 127 129 130 131 130 130 130 131 133 136 140 145 149 153 156 158 159 160 161 162 163 163 164 164 164 164 164 163 162 161 161 160 160 159 158 158 157 156 155 154 152 150 148 146 145 144 145 145 146 147 147 148 148 147 146 146 145 144 143 143 142 142 141 140 138 136 135 133 131 130 128 127 126 125 125 125 126 127 129 130 130 131 132 133 133 134 135 135 136 136 136 136 136 136 136 137 137 139 141 144 147 148 150 150 150 149 149 149 149 149 150 150 150 150 149 148 147 145 144 143 143 142 141 140 138 136 135 134 133 134 134 134 133 130 127 124 120 117 113 110 107 104 101 98 96 95 96 97 99 101 103 104 105 106 107 108 109 111 113 117 121 125 130 133 135 137 137 137 136 136 135 135 134 133 132 131 131 131 131 133 134 135 134 132 129 126 124 121 119 118 119 120 122 123 124 125 125 124 122 121 119 118 117 116 115 115 114 114 115 115 116 117 117 118 118 117 115 113 110 108 107 106 106 106 106 106 106 107 109 110 112 112 112 111 110 108 105 102 99 96 94 91 89 88 87 87 87 87 87 87 88 89 91 92 93 94 95 96 96 98 100 102 104 104 103 102 101 100 100 100 101 102 102 103 104 106 109 112 117 121 126 129 132 133 132 131 129 127 126 125 125 126 127 128 128 129 129 128 128 129 130 132 136 140 144 149 153 157 160 163 165 167 168 169 169 169 169 169 169 170 171 173 174 174 174 175 175 176 177 179 180 182 182 182 182
173 173 172 171 170 169 168 167 165 164 162 160 158 157 156 154 152 151 150 149 148 149 149 150 150 150 149 149 148 147 147 146 145 143 141 138 137 136 135 136 137 138 139 140 141 142 144 146 148 149 150 150 149 149 148 148 147 147 146 144 142 141 140 140 140 140 140 140 141 141 141 141 140 140 139 138 138 138 138 138 137 136 134 131 128 125 123 120 118 117 115 113 111 109 107 105 103 102 101 100 100 100 100 99 100 100 101 103 104 106 108 110 112 115 118 122 126 130 134 137 140 142 143 144 145 147 148 150 152 153 154 155 155 154 154 153 152 151 151 150 149 147 146 144 143 142 141 140 140 140 140 140 141 141 142 143 143 143 144 144 144 144 144 142 140 136 131 127 123 120 119 119 120 121 122 122 121 120 120 120 120 121 122 123 124 125 126 127 128 128 127 126 126 125 125 126 127 128 129 130 130 130 131 132 133 134 136 137 138 138 139 140 140 142 144 146 148 151 153 156 159 162 165 168 170 172 174 174 175 175 175 176 177 177 178 178 178 178 178 176 175 172 170 167 164 162 161 160 160 160 160 160 160 161 161 162 164 166 168 170 171 173 173 174 174 173 172 172 171 171 171 172 173 174 174 173 172 170 169 167 166 163 160 156 152 147 142 138 136 133 132 130 129 127 125 123 122 121 121 120 120 120 121 123 124 126 127 129 129 128 127 127 128 131 134 139 144 149 153 156 158 160 160 161 162 162 163 164 165 165 166 166 165 165 164 164 163 163 162 162 161 160 159 158 156 154 151 148 146 145 144 144 145 146 148 149 149 150 149 149 148 147 146 145 145 144 143 143 141 139 137 134 132 129 127 126 125 123 122 122 122 123 124 126 128 129 130 131 132 133 133 134 135 135 135 135 135 136 136 136 136 137 139 141 144 147 149 150 151 151 151 151 151 151 151 151 151 151 150 149 148 146 145 143 142 142 142 140 138 136 134 132 131 131 131 132 132 131 128 125 121 118 114 111 109 106 103 100 98 96 96 96 97 99 101 102 104 104 105 106 106 107 109 111 115 120 125 129 133 136 137 137 137 136 136 136 136 135 134 133 132 132 132 133 135 137 138 138 136 133 130 126 123 121 120 120 121 123 125 126 127 126 125 123 121 119 118 117 116 115 115 114 114 115 115 116 116 117 117 117 115 113 110 108 105 104 103 103 103 103 104 105 106 107 108 109 110 110 109 108 106 104 101 99 96 94 92 91 89 89 89 89 88 88 87 87 88 89 90 91 92 93 94 94 96 98 101 103 104 103 102 102 102 102 102 103 104 105 105 107 109 111 114 118 123 127 130 133 133 133 131 129 127 126 125 125 125 126 127 127 128 128 127 127 128 129 131 135 139 144 148 153 157 160 163 165 167 168 169 170 170 171 171 172 173 174 176 176 177 177 177 178 179 180 182 183 185 186 186 185
173 173 172 171 170 169 168 167 165 164 162 160 159 157 156 154 153 151 150 149 149 150 151 152 152 152 151 151 150 150 149 148 147 146 144 141 140 139 138 139 139 140 141 141 142 142 143 145 146 147 148 148 148 148 147 147 148 148 147 146 144 143 142 142 142 142 142 142 143 143 143 143 142 142 141 140 139 139 139 139 139 137 135 132 129 126 123 121 119 117 115 113 110 108 106 104 102 100 99 98 98 98 98 98 98 99 101 102 104 106 109 111 113 116 119 123 127 131 135 139 142 144 145 146 147 148 150 151 153 154 155 155 155 154 153 152 151 150 149 148 147 145 144 142 141 140 139 138 138 137 137 138 138 139 140 140 140 140 140 140 140 140 140 139 136 132 128 124 120 118 117 117 119 120 121 121 120 120 119 119 120 121 122 123 124 125 126 127 128 128 128 127 126 126 126 126 127 128 129 130 130 130 131 132 134 135 137 138 139 140 141 142 143 144 146 148 150 153 155 158 161 164 167 170 172 174 175 176 176 176 176 177 178 179 179 179 179 179 179 177 175 173 170 167 165 162 161 160 160 160 160 160 160 160 161 162 163 165 166 168 170 171 172 172 172 172 171 170 170 169 170 171 172 173 173 172 170 169 168 166 164 162 159 155 150 145 140 136 133 131 129 128 127 125 123 122 121 120 120 120 120 120 121 122 123 124 126 127 127 126 126 126 127 129 133 138 143 149 153 156 158 160 160 161 161 162 163 164 165 166 167 167 167 167 167 167 166 166 165 164 163 163 161 159 157 155 152 149 146 144 144 144 145 147 148 150 151 151 151 151 150 149 148 147 147 146 145 144 142 140 137 134 131 128 126 124 123 121 120 120 120 121 123 125 127 128 129 131 131 132 133 134 134 135 135 135 136 136 136 136 136 137 139 142 145 148 150 151 152 152 152 152 152 152 152 152 152 151 150 149 147 146 144 142 141 141 140 139 137 134 132 130 129 128 129 129 129 128 125 122 119 115 112 110 108 106 104 101 99 98 97 97 98 100 101 103 104 104 105 105 105 106 108 110 114 119 124 129 133 136 137 138 137 137 136 136 136 136 135 134 133 133 134 135 137 139 141 140 138 135 132 128 125 122 121 121 122 124 126 127 128 127 126 124 122 120 118 117 116 115 115 115 115 115 115 115 116 116 116 115 114 112 109 106 103 102 101 101 101 102 102 103 104 106 107 108 109 109 108 107 105 103 101 99 96 94 93 92 91 90 90 90 89 89 88 87 88 88 89 90 90 91 92 93 94 97 99 102 103 103 102 102 103 103 103 104 105 106 107 108 110 112 116 120 124 128 131 133 134 133 132 130 128 126 125 125 125 126 126 127 127 127 127 127 127 128 131 134 138 143 148 153 157 160 163 166 167 169 170 171 171 172 173 174 175 176 178 178 179 179 179 180 181 182 184 185 187 188 188 187
173 173 172 171 170 169 168 167 165 164 162 160 159 157 156 154 153 152 151 151 151 152 152 153 153 153 153 152 152 151 151 150 150 148 146 144 143 142 141 141 141 142 142 142 141 141 142 143 144 145 145 145 145 145 146 146 147 148 148 147 146 146 145 145 145 145 145 145 145 145 145 144 144 144 143 142 141 141 141 141 140 138 136 133 130 126 124 121 119 117 114 112 109 107 104 102 100 98 97 96 96 96 96 97 97 98 100 102 105 107 109 112 114 117 120 124 128 132 136 140 143 145 146 148 149 150 152 153 154 155 155 155 154 153 152 151 149 148 147 146 145 143 142 140 139 138 137 136 136 136 136 136 136 137 137 137 137 137 137 137 137 136 136 135 132 129 125 121 118 116 115 116 117 119 120 120 119 119 119 119 119 120 121 123 124 125 126 127 128 128 128 127 126 126 126 127 128 129 130 130 131 131 132 133 135 136 138 140 141 142 142 143 144 146 148 150 153 155 158 160 163 165 168 171 173 175 176 177 177 177 178 179 180 180 181 181 181 180 180 179 177 174 171 168 166 163 162 161 160 160 160 160 160 160 160 161 163 164 166 167 169 170 171 171 171 171 170 170 169 169 169 170 171 172 172 171 169 168 166 164 162 160 157 153 148 144 139 135 131 129 127 126 124 123 122 120 119 119 119 119 118 119 119 121 122 123 125 126 126 125 124 125 126 128 132 138 143 148 153 156 158 159 160 161 162 162 163 165 166 167 168 168 169 169 169 169 169 169 168 167 166 164 163 160 158 155 152 148 146 144 143 144 145 146 148 150 151 152 152 152 151 150 149 149 148 147 146 144 142 140 136 133 129 126 124 122 121 119 118 118 118 120 122 124 126 128 130 131 132 133 134 134 135 135 136 136 136 137 137 137 138 138 140 142 145 148 150 151 152 152 153 153 153 153 153 153 153 152 151 149 147 145 143 141 139 139 139 137 135 133 130 128 127 126 126 126 126 124 122 119 115 112 110 108 107 106 104 102 101 99 99 99 100 101 102 103 104 104 104 104 104 105 107 109 113 118 124 129 133 136 137 138 138 138 138 138 138 137 136 136 135 135 136 137 140 142 143 143 141 138 134 130 127 124 123 122 123 125 126 127 128 127 126 124 122 120 118 117 116 115 115 115 115 115 115 115 115 115 115 114 113 110 107 104 102 101 100 100 100 100 101 102 103 105 107 108 109 109 108 107 105 103 101 99 97 95 93 92 92 91 91 91 90 89 88 88 88 88 88 89 90 90 91 92 94 96 99 101 102 103 103 103 103 103 104 105 106 107 108 109 112 114 117 121 125 128 131 133 134 133 132 130 128 126 125 125 125 125 125 126 126 126 126 126 126 128 130 133 138 143 148 153 157 160 163 166 168 169 170 171 172 173 174 175 176 178 179 180 180 180 181 181 182 183 185 187 188 189 190 189
172 172 172 171 169 168 167 166 165 163 161 160 158 157 156 155 154 153 153 153 153 153 153 154 154 153 153 152 152 152 152 152 151 150 148 147 145 144 144 143 143 143 142 142 141 140 140 140 141 141 141 142 142 143 144 145 146 148 148 149 149 149 148 148 148 148 147 146 146 146 146 146 146 147 146 145 144 144 143 142 141 139 136 133 130 127 124 122 119 117 114 111 108 105 102 100 98 96 95 95 94 94 95 96 97 98 100 103 105 107 110 112 115 118 121 125 129 133 137 141 144 146 148 150 151 153 155 155 156 156 156 155 154 153 151 150 148 147 146 145 143 142 140 138 137 136 135 135 135 135 135 135 135 135 135 135 134 134 133 133 133 132 132 131 128 125 122 119 116 114 114 115 116 118 119 118 118 118 118 118 119 120 121 123 124 124 125 126 127 127 127 127 127 127 127 128 128 129 130 131 131 131 132 133 135 137 139 141 142 143 143 144 145 147 149 152 154 157 160 162 165 167 169 171 173 175 176 177 178 179 179 180 181 182 182 182 182 182 181 180 178 176 173 170 167 165 163 161 160 159 159 159 159 160 161 162 163 164 166 167 168 169 170 170 171 171 170 170 170 170 170 170 170 171 170 169 167 166 164 162 159 157 154 150 146 141 137 133 129 127 125 123 122 121 119 118 118 117 117 117 117 117 118 120 121 122 124 125 125 124 124 124 126 129 133 138 143 148 152 155 158 159 160 161 162 163 164 165 166 166 167 168 169 170 171 172 172 172 171 170 168 166 164 161 158 155 151 148 145 143 142 143 144 146 148 150 151 152 153 152 152 151 150 149 149 148 147 145 143 140 136 132 128 125 122 120 119 117 117 116 117 118 121 124 127 129 132 133 134 135 136 136 136 136 136 137 137 138 139 140 140 140 142 144 146 148 150 151 152 153 153 154 154 154 154 154 154 152 151 149 147 144 141 139 137 137 136 135 133 131 129 127 125 124 123 123 122 120 117 115 112 109 107 106 105 105 104 103 102 102 101 102 102 102 102 103 103 103 103 102 103 104 105 108 112 118 123 128 133 136 138 139 139 139 139 140 139 139 138 138 137 137 138 140 142 144 145 145 143 140 136 132 129 126 124 124 124 125 126 127 128 127 126 124 122 119 118 116 116 115 115 115 115 115 115 115 115 115 114 113 112 109 107 104 102 101 100 100 100 100 101 102 103 105 107 109 110 110 109 108 106 103 101 99 97 95 94 93 93 92 92 92 91 90 89 88 87 87 88 89 90 91 92 92 94 96 99 101 102 103 103 103 103 103 103 104 105 107 109 111 113 116 119 122 126 128 130 132 132 132 131 130 128 127 126 125 125 124 124 124 124 124 124 124 125 127 129 133 137 142 147 152 156 160 163 165 168 169 171 172 173 174 174 175 176 178 179 180 181 181 181 182 183 184 186 187 189 190 190 190
172 172 171 170 169 167 166 165 164 163 161 159 158 156 156 155 154 154 154 154 154 154 154 154 154 153 152 152 152 152 152 152 152 151 150 149 147 147 146 146 145 144 143 141 140 139 138 138 138 138 138 138 139 140 142 144 145 147 149 150 151 151 152 152 151 150 149 148 147 146 147 147 148 149 150 149 148 147 145 144 142 140 137 134 131 128 125 122 120 117 114 110 107 103 100 98 96 94 93 93 93 93 94 95 96 98 101 103 106 108 111 113 116 119 122 126 130 134 138 141 145 147 150 152 154 156 157 158 158 157 156 155 154 152 150 149 147 146 145 144 142 141 139 137 136 135 134 134 134 134 134 134 134 134 133 132 131 131 130 130 129 128 128 127 125 122 119 117 115 113 113 114 115 117 117 117 117 117 117 118 119 120 122 123 123 123 124 124 125 126 126 127 127 128 128 128 129 130 130 131 131 131 132 134 136 138 140 142 143 143 143 144 145 147 149 153 156 159 162 164 166 168 170 171 173 175 176 177 179 180 181 182 182 183 183 184 184 183 183 182 180 178 176 173 170 167 164 162 160 159 158 158 159 160 161 162 164 165 166 167 168 168 169 170 170 171 171 171 171 171 171 170 170 170 169 167 166 163 161 159 156 153 151 147 143 139 135 131 128 125 123 121 120 118 117 116 116 115 115 115 115 116 117 118 120 122 123 124 124 124 124 125 127 130 133 138 143 147 152 155 157 159 160 161 162 163 164 165 165 166 166 167 168 170 172 174 175 175 174 172 170 167 164 161 158 154 150 147 144 141 141 141 143 145 147 149 151 152 153 153 152 151 150 150 149 148 147 146 143 140 136 131 127 123 120 118 117 116 115 115 116 117 120 123 127 131 134 136 137 138 138 137 137 137 137 138 139 140 141 142 143 143 144 145 146 148 149 151 152 153 154 154 155 155 155 155 154 153 151 149 146 143 140 137 135 134 134 133 131 129 127 125 123 122 121 120 118 116 113 110 108 106 105 104 104 104 104 104 104 104 104 104 104 103 102 102 102 101 101 101 101 102 104 107 111 117 122 128 132 136 138 139 140 141 142 142 142 141 141 140 140 140 141 142 144 146 147 147 145 142 138 134 130 127 126 125 125 126 127 127 128 127 126 124 121 119 117 116 115 115 115 115 115 115 115 115 115 114 114 113 111 109 107 105 103 102 101 101 100 101 101 102 104 106 108 110 111 111 111 109 107 104 101 98 96 95 94 93 93 93 93 93 92 91 89 88 87 87 88 89 90 92 93 94 95 97 99 101 102 103 103 103 102 102 102 103 104 106 109 112 116 119 122 124 126 128 129 130 130 130 130 129 129 128 127 126 125 124 123 122 122 122 122 123 124 126 128 132 136 141 146 152 156 159 162 165 167 169 171 172 173 174 175 175 177 178 179 180 181 181 181 182 183 184 186 188 189 190 191 190
171 171 170 169 168 167 166 165 163 162 160 159 157 156 155 155 155 155 156 156 156 156 155 154 153 152 152 152 152 152 153 153 153 152 151 150 149 148 148 147 146 144 143 141 139 138 136 136 135 135 135 135 136 138 140 142 144 147 149 151 153 154 155 155 154 152 150 148 147 147 147 148 150 152 153 152 151 149 147 145 143 140 138 135 132 128 126 123 121 118 114 110 106 102 99 96 94 93 92 91 91 92 92 94 96 98 101 104 107 109 112 114 117 120 123 126 130 134 138 141 145 148 151 154 157 159 160 160 159 158 156 155 154 152 150 148 147 145 144 143 141 140 138 136 135 134 133 134 134 134 134 134 133 133 132 130 129 128 128 127 126 125 124 123 122 120 117 115 114 112 112 113 114 116 116 116 115 116 116 118 119 120 122 122 122 122 122 122 123 125 126 127 128 128 129 129 130 130 131 131 131 132 133 134 136 138 141 143 144 144 144 144 145 146 149 153 157 161 164 166 168 169 170 171 172 174 176 177 179 180 182 183 184 184 185 185 185 185 184 183 182 180 178 175 172 169 165 162 160 158 158 158 159 160 162 163 164 165 166 167 168 168 169 169 170 171 172 172 173 172 172 171 170 169 168 166 164 162 159 156 153 150 147 144 141 137 133 129 126 123 121 119 118 116 115 114 114 114 114 114 114 114 116 117 119 121 122 123 124 124 124 125 127 131 134 139 143 147 151 154 157 159 160 161 162 163 164 164 165 165 166 166 168 170 173 175 177 177 176 175 172 168 165 161 157 154 150 146 142 140 139 140 142 144 146 149 151 152 153 153 152 151 150 149 149 148 147 146 144 140 136 131 126 122 119 116 115 114 114 114 115 116 119 123 128 132 136 139 140 140 140 139 138 138 138 139 140 142 144 145 145 145 146 146 147 148 149 150 152 153 154 155 156 156 156 156 155 153 152 149 146 142 139 135 133 132 132 131 130 128 126 124 122 120 119 117 115 112 109 107 105 103 103 102 103 103 104 105 105 106 106 106 105 104 102 101 100 100 100 100 100 101 103 106 111 116 122 128 132 135 138 140 142 143 143 144 144 143 143 142 142 142 143 144 146 148 149 148 146 143 139 135 132 129 127 126 126 126 127 127 127 127 125 123 121 118 116 115 115 115 115 115 115 115 115 115 114 114 113 112 110 109 107 105 104 103 102 101 101 101 102 103 105 107 109 111 113 113 113 111 108 104 101 98 96 95 94 94 93 93 93 93 92 91 90 88 87 87 88 89 91 93 95 96 97 98 100 101 102 103 103 103 102 101 101 101 103 106 109 113 117 121 124 125 127 127 128 128 128 129 129 129 129 129 128 126 125 123 121 120 119 120 120 121 123 125 128 131 136 141 146 151 156 159 162 165 167 169 171 172 173 174 175 175 176 178 179 180 181 181 181 182 183 184 186 188 189 190 190 191
171 171 170 169 168 166 165 164 163 162 160 158 157 156 155 155 155 156 157 157 157 156 155 154 153 152 151 151 152 152 153 153 153 152 152 151 150 150 149 148 146 145 143 141 138 137 135 134 133 133 133 133 134 136 139 141 144 146 149 151 154 155 156 157 156 154 151 149 147 147 147 149 151 153 155 154 153 151 149 146 143 141 138 135 132 129 126 124 121 118 114 109 105 101 97 95 93 92 91 90 90 91 92 94 96 99 102 104 107 109 112 114 117 120 123 127 130 134 138 141 145 149 152 156 158 160 161 161 160 158 157 155 153 151 150 148 146 145 144 143 141 139 137 135 134 133 133 133 134 134 134 134 133 132 131 129 128 127 126 125 124 123 122 121 120 118 116 114 113 112 112 113 114 115 116 115 115 115 116 117 119 120 122 122 122 121 121 121 122 124 125 127 128 129 129 130 130 131 131 131 131 132 133 135 137 139 141 143 144 144 143 144 144 146 149 153 158 162 165 167 169 170 171 171 172 174 175 177 179 181 182 184 185 185 186 186 186 186 185 184 183 181 179 176 173 170 166 163 160 158 157 158 159 160 162 164 165 166 167 167 168 168 168 169 170 171 172 173 174 174 173 172 170 169 167 165 163 160 157 154 151 147 145 142 139 136 132 128 125 122 119 118 116 115 114 113 113 113 113 113 113 113 115 117 119 121 122 123 123 124 125 126 128 131 135 139 143 147 151 154 157 159 160 161 162 163 164 164 164 164 165 166 167 170 173 176 178 179 178 176 173 169 165 161 157 153 149 145 142 139 139 139 141 143 146 148 150 152 153 153 152 151 150 149 149 148 148 146 144 140 135 131 126 121 118 115 114 113 113 113 114 116 119 123 128 133 138 141 142 142 141 140 139 138 138 139 141 143 145 147 147 147 147 147 147 147 148 150 151 153 154 156 156 157 157 156 155 154 152 149 146 142 138 134 132 131 131 130 129 127 125 123 121 119 117 115 112 110 107 104 103 102 101 101 102 103 104 105 106 107 107 107 106 104 102 101 100 99 99 99 99 101 103 106 110 116 122 127 132 135 138 140 142 144 145 145 145 145 144 143 143 143 144 146 148 149 150 149 147 144 140 136 133 130 128 127 126 126 127 127 127 127 125 123 120 118 116 115 114 114 115 115 116 116 115 115 114 114 113 111 110 109 107 106 105 104 103 102 102 102 102 104 105 107 110 112 114 114 114 112 108 104 101 98 96 95 94 94 93 93 93 93 92 91 90 88 87 87 88 90 92 95 96 97 98 99 100 101 103 103 103 103 101 100 100 100 102 105 110 114 119 122 125 126 127 127 127 127 127 127 128 129 129 129 128 127 125 122 120 118 118 118 119 120 122 124 127 130 135 140 146 151 155 159 162 165 167 169 171 172 173 174 175 175 176 178 179 180 180 181 181 182 183 184 186 187 189 190 190 191
171 171 170 169 167 166 165 164 163 162 160 158 157 156 155 155 156 156 157 158 157 157 155 154 153 152 151 151 152 152 153 153 153 153 152 151 151 150 149 148 147 145 143 140 138 136 135 133 133 132 132 132 134 136 138 141 144 146 149 152 154 156 157 157 156 154 151 149 147 147 147 149 152 154 155 155 154 152 149 147 144 141 138 135 132 129 126 124 121 118 114 109 104 100 97 94 92 91 90 90 90 90 92 93 96 99 102 105 107 110 112 114 117 120 123 127 130 134 138 141 145 149 153 156 159 161 162 162 160 159 157 155 153 151 149 148 146 145 144 142 141 139 137 135 134 133 133 133 134 134 134 134 133 132 130 129 128 126 125 124 123 122 121 120 119 118 116 114 113 112 112 112 114 115 115 115 114 115 116 117 119 120 122 122 122 121 121 121 122 123 125 126 128 129 129 130 130 131 131 131 131 132 133 135 137 139 141 143 144 144 143 143 144 146 149 153 158 162 166 168 169 170 171 171 172 173 175 177 179 181 183 184 185 185 186 186 186 186 185 184 183 182 180 177 174 170 167 163 160 158 157 157 159 160 162 164 165 166 167 168 168 168 168 169 170 171 172 173 174 174 173 172 170 168 167 165 163 160 157 153 150 147 144 141 138 135 131 128 124 122 119 117 116 114 113 113 112 112 112 112 112 113 114 116 119 121 122 123 123 124 125 126 128 132 135 139 143 147 151 154 157 159 160 161 162 163 164 164 164 164 165 165 167 170 173 176 179 180 179 176 173 169 165 161 157 153 149 145 141 139 138 139 140 143 146 148 150 152 153 153 152 151 150 149 149 148 148 146 144 140 135 130 125 121 117 115 114 113 113 113 114 116 119 123 129 134 138 141 143 143 142 140 139 138 138 139 141 144 146 147 148 148 147 147 147 147 148 150 151 153 154 156 156 157 157 156 155 154 152 149 146 142 137 134 131 130 130 130 128 127 125 123 121 119 116 114 112 109 106 104 102 101 101 101 102 103 104 106 107 108 108 108 106 104 102 100 99 98 98 98 99 100 102 106 110 116 121 127 132 135 138 140 143 144 145 146 146 145 144 144 144 144 145 146 148 150 150 150 147 144 141 137 133 130 128 127 126 126 127 127 127 127 125 123 120 117 116 114 114 114 115 115 116 116 115 115 114 113 112 111 110 109 107 106 105 104 103 103 102 102 103 104 105 108 110 112 114 115 114 112 109 105 101 97 96 94 94 94 93 94 94 93 92 91 90 88 87 87 88 90 92 95 97 98 99 100 101 102 103 103 103 103 101 100 99 100 102 105 110 114 119 123 125 127 127 127 126 126 126 127 128 129 130 129 129 127 125 122 120 118 117 118 118 120 122 124 127 130 135 140 146 151 155 159 162 165 167 169 171 172 173 174 175 175 176 178 179 180 180 181 181 182 183 184 186 187 189 190 190 191
171 171 170 169 168 166 165 164 163 162 160 159 157 156 155 155 156 156 157 158 158 157 156 154 153 152 152 152 152 152 153 153 153 153 152 151 151 150 149 148 147 145 143 140 138 136 135 133 133 132 132 132 134 136 138 141 143 146 148 151 154 155 157 157 156 154 151 149 147 146 147 149 151 154 155 155 153 151 149 146 143 141 138 135 132 129 126 123 121 117 113 109 104 100 97 94 93 91 91 90 90 91 92 94 96 99 102 105 107 109 112 114 117 120 123 126 130 134 138 141 145 149 153 156 158 161 162 161 160 158 157 155 153 152 150 148 146 145 144 143 141 139 138 136 134 133 133 133 134 134 134 134 133 132 131 129 128 127 126 125 124 123 122 121 120 118 116 115 114 113 112 113 114 115 115 115 114 115 115 117 118 120 121 122 121 121 120 121 122 123 125 126 128 129 129 129 130 130 131 131 131 131 133 134 137 139 141 143 144 144 144 144 145 146 150 154 158 162 166 168 169 170 170 171 172 173 175 177 179 180 182 183 184 185 185 186 186 186 185 184 183 182 179 177 174 170 167 163 160 158 157 158 159 160 162 164 165 166 167 167 167 168 168 169 170 171 172 173 174 174 173 172 170 168 166 164 162 160 156 153 150 147 144 141 139 136 132 129 125 122 120 118 116 115 114 113 113 113 113 113 113 113 115 117 119 121 122 122 123 124 125 126 129 132 135 139 143 147 151 154 156 158 160 161 162 163 164 164 164 164 164 165 167 170 173 176 178 179 178 176 173 169 165 160 157 153 149 145 142 139 139 139 141 143 145 148 150 151 152 152 152 151 150 149 148 148 147 146 144 140 136 131 126 121 118 116 114 114 113 113 114 116 119 124 129 134 139 142 143 143 142 140 139 138 138 139 141 143 146 147 148 147 147 147 147 147 148 149 151 153 154 156 156 157 157 156 155 154 152 149 146 142 138 134 132 131 131 130 129 127 126 124 121 119 117 115 112 110 107 104 102 101 101 101 102 103 104 106 107 108 108 108 106 104 102 101 99 99 99 99 100 101 103 106 111 116 122 127 132 135 138 140 142 144 145 145 145 145 144 144 144 144 145 146 148 149 149 149 146 144 140 136 133 130 128 127 126 126 126 126 126 126 124 122 120 117 115 114 114 114 115 115 116 116 115 115 114 114 113 111 110 109 107 106 105 104 103 102 102 102 103 104 105 108 110 112 114 115 114 112 109 105 101 98 96 95 94 94 94 94 94 93 93 91 90 88 87 87 88 90 93 95 97 98 99 100 101 102 103 103 103 103 101 100 100 100 102 105 110 114 119 122 125 126 127 126 126 126 126 127 128 129 130 130 129 127 125 122 120 119 118 118 119 120 122 125 127 131 135 140 146 151 155 159 162 165 167 169 170 172 173 174 174 175 176 178 179 180 180 181 181 182 183 184 186 187 189 190 190 191
171 170 170 169 168 167 166 166 164 163 161 160 158 157 156 156 156 157 157 158 158 157 156 155 154 154 153 153 153 153 153 153 153 153 152 151 151 150 149 148 147 145 142 140 138 136 134 133 133 132 132 132 134 135 137 140 142 144 147 150 152 154 155 155 154 152 150 148 146 146 147 148 150 153 154 153 152 150 148 146 143 140 137 134 131 127 124 122 119 116 112 108 104 101 98 95 93 92 91 91 91 91 92 94 97 99 102 105 107 109 111 113 115 118 122 125 130 134 138 141 145 149 152 155 157 159 160 160 159 158 157 155 154 152 150 149 148 146 145 144 143 141 139 138 136 135 134 134 134 134 134 134 133 132 131 130 129 129 128 126 125 124 123 122 121 120 118 117 116 115 114 114 114 115 115 114 114 114 114 115 117 118 119 120 120 120 120 120 121 123 124 126 127 128 128 128 129 129 130 130 130 130 132 134 136 139 141 143 144 145 145 145 146 148 151 155 159 162 165 167 169 170 170 170 171 173 174 176 177 179 180 181 182 183 184 185 186 186 185 184 183 181 179 176 173 170 166 163 160 158 157 158 159 160 162 164 165 166 166 166 166 166 167 167 168 170 171 173 174 173 173 171 169 167 165 163 162 159 156 152 149 146 144 142 140 137 134 131 128 125 122 119 117 115 114 114 114 114 114 115 115 115 116 118 119 120 121 122 123 124 125 127 129 132 136 140 143 147 151 154 156 158 159 160 160 161 162 163 163 163 164 165 167 169 172 175 177 177 177 174 171 168 164 160 156 153 149 145 143 141 140 140 141 143 145 147 149 150 151 151 151 150 149 148 148 147 147 146 144 140 136 131 127 123 120 117 116 115 115 115 116 118 121 125 130 135 139 142 143 143 142 141 139 139 139 140 141 143 145 147 147 147 146 146 146 146 147 148 150 152 154 155 156 157 157 156 155 154 152 149 146 142 139 135 133 133 132 132 130 129 127 125 123 120 119 117 114 112 108 106 104 102 101 101 102 103 104 105 107 108 108 108 106 105 103 101 100 99 99 100 101 104 106 109 113 118 123 128 132 135 138 140 141 142 143 143 143 143 143 143 144 144 145 146 147 147 147 146 144 141 138 135 132 129 128 126 126 125 125 125 125 124 123 121 119 116 115 114 114 114 115 116 116 116 116 115 115 114 113 112 110 109 107 106 105 103 103 102 102 102 102 103 105 107 110 112 113 114 113 112 109 105 102 99 97 96 95 94 94 94 94 94 93 91 90 89 88 87 88 91 93 96 98 99 99 100 101 102 103 103 104 103 102 101 101 102 103 106 110 113 117 121 123 125 125 125 125 125 126 126 128 129 130 130 129 128 126 124 122 120 120 120 121 122 124 126 129 132 137 141 146 151 155 158 161 164 166 167 169 170 171 173 174 175 176 178 179 180 180 181 181 182 183 184 185 187 188 189 189 190
171 171 170 170 169 168 168 167 166 164 163 161 159 158 157 157 157 157 158 158 158 158 158 157 156 156 155 155 154 154 153 153 153 153 152 151 151 150 150 148 147 144 142 140 137 135 134 133 132 132 132 132 133 134 136 138 140 142 145 147 149 151 152 152 151 150 148 147 145 145 146 147 149 151 152 151 150 148 147 145 142 140 137 133 130 126 122 119 117 114 111 108 104 101 98 96 94 93 93 92 92 92 94 95 97 100 103 105 107 108 109 111 113 116 120 124 129 133 138 141 145 148 150 153 155 157 158 158 158 157 156 156 154 153 152 150 149 148 147 146 145 143 142 140 139 137 136 135 134 133 133 133 133 133 133 132 131 131 130 129 128 126 125 124 123 122 121 120 119 118 116 116 115 115 115 114 113 113 113 113 114 116 117 118 119 119 119 120 121 122 123 125 126 127 127 127 127 128 128 128 128 129 131 133 136 139 141 143 145 145 146 147 148 150 152 156 159 162 165 167 168 169 169 170 170 172 173 175 176 177 177 178 179 180 182 184 185 185 184 183 182 180 178 175 173 170 167 163 161 159 158 159 160 161 163 164 165 165 166 165 165 165 165 165 167 168 170 172 173 173 172 170 168 166 164 162 160 158 155 151 149 146 144 142 141 139 137 135 131 128 124 121 119 117 115 115 115 116 117 117 118 118 118 119 119 120 121 122 122 123 125 127 129 132 136 140 144 147 151 153 156 157 158 158 158 159 160 161 161 162 163 164 166 168 171 173 175 175 174 172 170 166 163 159 156 152 149 146 144 142 142 142 143 144 145 146 147 149 149 149 149 148 148 147 146 146 146 146 144 140 136 132 128 125 122 120 119 118 118 118 118 120 123 127 132 136 140 143 144 144 143 141 140 139 139 140 141 143 144 146 146 146 145 145 144 145 145 147 149 151 153 155 156 156 156 156 155 153 151 149 146 143 140 137 135 135 135 134 133 131 129 127 125 123 121 119 117 114 111 108 106 103 102 101 102 103 104 106 107 108 108 108 107 105 103 102 101 100 101 102 104 107 109 112 116 120 125 129 133 136 137 139 139 140 140 140 140 141 142 143 144 145 145 145 145 144 143 142 140 137 135 133 131 129 127 126 124 123 122 122 122 121 120 119 117 115 114 113 113 114 115 116 117 117 117 116 115 114 113 112 111 109 107 105 104 103 102 102 101 101 102 103 105 107 109 111 113 113 113 111 109 106 103 100 98 97 96 95 95 95 94 94 93 92 90 89 88 88 89 91 94 97 99 100 100 101 102 102 103 104 104 104 103 103 103 104 105 107 110 112 116 118 121 122 123 124 124 125 125 126 127 129 130 130 130 129 127 125 124 123 122 123 123 125 126 129 131 134 138 142 147 151 155 158 160 163 164 165 167 168 169 171 173 174 176 178 179 180 180 180 181 182 183 184 185 186 187 188 188 189
171 171 171 171 170 170 170 169 168 166 164 163 161 160 159 159 158 158 158 159 159 159 159 159 159 158 157 156 155 154 154 153 153 153 152 152 151 150 150 148 146 144 141 139 136 135 133 132 132 132 132 132 133 133 135 136 138 140 142 144 146 148 149 149 148 147 146 145 144 144 144 145 147 149 149 149 148 146 145 143 141 139 136 132 128 124 120 117 114 112 109 107 104 102 99 97 96 95 94 94 94 94 95 97 99 101 103 105 107 107 108 109 111 114 117 122 128 133 137 141 144 147 149 150 152 154 155 156 156 156 156 156 155 154 153 152 151 150 149 148 147 146 145 143 141 139 137 135 134 133 133 133 133 133 134 134 134 133 132 131 130 129 128 127 126 125 124 123 122 121 119 118 116 115 114 113 112 112 111 111 112 113 115 116 117 118 119 120 121 122 123 124 125 125 126 126 126 126 127 127 127 127 129 132 135 138 141 144 145 146 147 148 150 152 154 157 160 162 164 166 167 168 168 168 169 171 172 173 173 174 174 175 176 177 179 182 183 184 183 182 181 178 176 174 172 170 167 164 162 160 159 160 161 162 163 165 165 165 165 164 164 163 163 163 164 166 169 171 172 172 171 169 167 165 162 160 159 156 153 150 148 145 144 143 142 142 140 138 135 131 127 124 121 118 117 116 117 118 119 120 121 120 120 120 120 120 120 121 122 123 125 127 130 133 136 140 144 147 150 153 155 156 156 156 156 157 158 159 160 161 162 164 165 167 169 171 172 173 172 170 168 165 162 158 155 152 150 147 146 144 144 144 144 144 145 145 146 147 147 147 147 147 146 145 145 145 145 145 144 141 137 134 130 128 125 124 122 121 121 120 121 123 125 129 134 138 141 144 145 145 143 142 140 140 139 140 141 142 144 145 145 145 144 143 143 143 144 145 148 150 152 154 155 156 156 155 154 153 151 149 146 144 141 139 138 138 137 136 135 133 131 129 127 125 123 122 120 118 115 111 108 105 103 102 102 103 104 106 107 108 108 108 107 106 104 103 102 101 102 104 107 110 113 116 119 123 127 130 133 136 137 138 137 137 137 137 137 138 140 142 143 144 145 144 143 141 139 137 135 133 132 130 129 128 126 125 123 121 120 119 118 118 117 116 115 114 113 113 113 114 116 117 118 118 117 117 116 115 114 113 111 109 107 105 104 103 102 101 101 101 102 103 104 107 109 111 112 113 112 111 109 106 104 102 100 98 97 96 95 95 95 94 93 92 90 89 88 88 90 92 95 98 100 101 102 102 102 103 103 104 104 105 105 105 105 106 107 108 110 112 114 116 118 120 121 122 123 124 124 125 127 129 130 131 130 130 129 127 126 126 125 126 126 128 129 131 134 137 140 144 147 151 154 157 160 161 163 163 164 166 167 169 171 174 176 178 179 180 180 180 181 181 182 183 184 185 186 187 187 188
171 171 171 171 172 172 172 171 170 168 166 165 163 162 161 160 160 160 160 160 160 160 160 161 161 160 159 158 157 155 154 154 153 153 153 152 151 151 150 148 146 144 141 138 136 134 132 132 131 131 131 131 132 132 133 134 135 137 139 141 143 144 145 146 145 145 144 143 142 142 143 144 145 147 147 147 145 144 143 142 140 138 135 131 127 122 118 114 112 110 108 106 105 103 101 99 97 96 96 96 95 96 97 98 100 102 104 106 107 107 107 107 109 111 116 121 126 132 137 140 143 145 147 148 149 151 152 154 155 155 156 156 155 154 154 153 152 152 151 150 149 148 147 145 143 141 138 136 134 132 132 132 133 134 135 135 136 135 135 134 133 132 131 130 129 128 127 127 125 124 121 119 117 115 114 112 112 111 110 110 110 111 113 115 116 118 119 120 121 122 122 123 124 124 125 125 125 125 125 125 125 126 128 131 135 138 141 144 146 147 148 150 152 154 156 158 160 162 164 165 166 166 166 167 168 169 170 171 171 171 171 171 172 174 177 179 182 182 182 181 179 177 175 173 172 170 168 165 163 162 161 161 162 163 165 165 166 165 164 163 162 161 161 161 162 165 167 169 171 171 170 168 165 163 161 159 157 155 152 149 147 145 143 143 143 144 143 141 138 135 130 126 122 120 118 118 119 120 121 123 123 123 122 121 121 120 120 121 122 123 125 128 130 133 137 140 144 147 150 153 154 155 154 154 154 154 156 157 158 159 161 163 164 166 168 170 171 171 170 168 166 164 161 158 155 152 150 148 147 146 146 146 146 145 145 145 145 145 146 146 146 145 144 144 144 144 145 145 144 141 138 135 133 130 128 127 125 124 124 123 124 125 128 131 135 139 143 145 146 145 144 143 141 140 139 140 141 142 143 143 144 143 143 142 142 142 142 144 146 149 151 153 155 155 155 155 154 152 151 148 146 144 142 141 140 140 139 138 137 135 132 130 128 127 126 124 123 120 118 114 110 107 104 103 103 104 105 106 108 109 109 109 108 107 105 104 103 103 104 107 110 114 117 119 122 125 128 131 133 135 136 136 135 134 134 133 134 136 138 141 143 144 144 142 140 138 135 132 130 129 128 128 127 126 125 123 121 119 117 116 115 115 115 114 114 113 112 112 113 115 116 118 119 119 119 118 117 116 115 114 112 110 108 106 104 103 102 101 101 101 102 103 105 107 109 111 112 112 112 111 109 107 105 103 101 99 97 96 95 95 95 94 93 92 90 89 88 89 91 93 97 100 102 102 103 103 103 103 104 104 105 105 106 106 107 108 109 110 110 111 112 114 116 118 120 121 122 123 123 124 126 128 130 131 131 131 130 130 129 129 128 129 129 130 132 134 136 139 142 145 148 151 154 157 159 160 161 162 162 163 165 167 170 173 175 177 178 179 179 179 180 181 182 183 184 184 185 186 186 187
172 172 172 173 173 173 173 173 172 171 169 167 166 165 164 163 162 162 161 161 161 162 162 162 163 162 161 160 158 157 155 154 154 154 153 152 152 151 150 148 146 143 140 137 135 132 131 130 130 130 130 130 130 130 131 132 133 135 137 138 140 141 142 143 143 142 142 141 140 140 141 142 143 145 145 144 143 142 141 140 139 137 134 130 126 121 117 113 111 109 107 106 105 103 102 100 99 98 98 98 98 98 99 100 102 103 105 106 107 106 106 106 107 110 114 119 125 131 135 139 142 143 145 146 147 148 150 151 153 154 154 155 155 155 154 154 154 153 152 151 151 150 148 146 144 142 139 136 133 132 131 132 132 134 135 136 137 137 137 136 135 134 133 132 132 131 130 129 127 125 123 120 118 115 113 112 111 110 109 109 109 111 112 114 116 118 119 120 121 122 122 123 123 124 124 124 124 124 125 125 125 125 128 131 135 138 141 144 146 147 149 151 152 155 157 159 161 162 163 164 165 165 165 165 166 167 168 169 169 168 168 168 169 171 174 177 179 180 180 179 177 175 174 172 172 171 169 167 165 164 164 164 165 166 166 167 167 166 164 163 161 160 159 159 161 163 165 167 169 169 168 166 164 161 159 157 155 153 150 148 146 144 143 143 144 145 145 143 140 137 132 128 124 121 120 119 120 121 123 124 125 124 124 122 121 121 121 121 122 124 126 128 131 134 137 140 143 146 149 152 153 153 153 152 152 152 153 155 156 158 160 161 163 165 167 168 169 169 169 167 165 163 161 158 155 153 151 150 149 148 148 148 147 146 145 144 144 144 144 144 144 144 143 142 143 143 144 145 144 142 139 137 135 133 131 130 128 127 126 126 126 128 130 134 137 141 144 146 147 146 145 143 141 140 139 139 140 141 142 142 142 142 142 141 140 140 141 142 145 147 150 152 154 154 154 154 153 152 150 148 146 144 143 142 141 141 140 139 138 136 133 131 130 128 127 126 125 123 120 117 113 109 106 104 104 105 106 108 109 110 110 110 109 108 106 105 105 104 106 109 112 116 119 122 124 127 129 131 133 135 135 135 134 132 131 131 131 133 136 139 141 142 142 140 137 134 131 128 126 125 125 125 125 124 123 122 119 117 115 113 113 113 113 112 112 112 112 112 113 115 117 119 120 120 120 120 119 118 117 115 113 111 109 107 105 104 103 102 102 102 103 104 105 107 110 111 113 113 112 111 109 108 105 103 101 99 97 96 95 94 94 94 93 91 90 89 88 89 91 94 98 101 103 104 104 105 105 105 105 105 106 107 107 108 108 110 110 111 111 111 112 113 115 117 119 120 121 122 123 124 126 129 131 132 132 132 132 132 131 131 131 131 132 133 134 136 138 141 143 146 148 151 154 157 158 159 160 160 161 161 163 166 168 171 174 176 177 177 178 178 179 179 181 182 183 184 184 185 185 186
173 173 173 174 174 175 175 175 174 173 171 169 168 167 166 165 165 164 164 163 163 163 164 164 164 163 162 161 159 158 156 155 155 154 154 153 152 151 150 148 146 143 140 137 134 131 130 129 128 128 128 128 128 128 129 130 131 133 134 136 137 139 140 140 140 140 139 139 139 138 139 140 141 143 143 143 142 141 140 138 137 135 133 129 125 120 116 113 110 108 107 106 105 104 102 101 100 100 100 100 100 100 101 102 103 104 106 107 107 106 105 105 106 109 113 118 124 129 134 137 140 141 143 143 144 146 147 149 150 152 153 154 154 154 155 155 154 154 153 152 152 150 149 147 145 142 139 135 133 131 130 131 132 133 135 137 138 138 138 138 137 136 135 134 134 133 132 131 129 127 124 121 118 115 113 112 111 110 109 109 109 111 113 115 117 118 120 121 122 122 123 123 124 124 124 124 124 124 125 125 125 126 128 131 134 138 141 144 146 147 149 151 153 155 157 159 161 162 163 163 163 163 163 163 163 165 166 166 166 166 165 166 167 168 171 174 176 177 177 176 175 173 172 172 172 172 171 169 168 167 167 167 168 168 168 168 168 166 164 162 160 159 158 158 159 161 163 166 167 167 166 164 162 159 157 155 153 151 149 147 145 143 143 143 144 145 146 144 142 138 134 129 126 123 121 120 121 122 124 125 126 125 124 123 122 121 121 122 123 124 126 128 131 134 137 140 143 146 149 151 152 152 151 151 150 151 152 153 155 157 158 160 162 164 166 168 169 169 168 167 165 163 161 158 156 154 152 151 150 150 149 149 148 147 146 145 144 144 144 144 143 143 142 142 142 143 144 145 144 143 140 138 136 135 133 132 131 129 129 128 129 130 132 135 139 142 145 147 147 147 145 143 141 140 139 139 139 140 140 141 141 141 140 139 139 139 140 141 144 146 149 151 153 153 153 153 152 151 150 148 146 144 143 142 141 141 141 140 138 136 134 132 130 129 128 127 126 124 121 118 114 111 108 106 106 107 108 109 111 111 112 111 111 109 108 107 106 106 108 111 114 118 121 123 125 128 129 131 133 134 134 134 132 131 129 129 130 131 134 136 138 139 139 137 134 131 128 125 123 122 122 122 122 122 121 119 117 115 113 112 111 111 111 111 111 111 112 112 114 116 118 120 121 122 122 121 121 119 118 116 115 112 110 108 106 105 104 104 104 104 104 105 107 109 111 112 114 114 113 112 110 108 105 103 101 98 96 95 94 93 93 93 92 90 89 89 89 90 92 95 99 102 104 105 106 106 106 106 106 107 107 108 108 109 109 110 111 111 111 112 112 114 115 117 119 120 121 122 123 124 126 129 131 132 133 133 133 133 133 133 133 133 133 134 136 137 139 142 144 146 149 151 154 156 158 159 159 159 160 160 162 164 167 169 172 174 175 176 176 176 177 178 180 181 182 183 184 185 185 186
174 174 174 175 176 176 177 177 176 175 173 171 170 169 168 168 167 167 167 166 166 165 165 165 165 164 163 162 161 159 158 157 157 156 155 154 153 152 151 149 146 144 140 137 134 131 129 128 127 126 126 126 126 127 127 128 130 131 133 134 135 137 137 138 138 138 138 138 138 138 138 139 140 141 141 141 140 138 137 136 134 133 131 127 123 119 115 112 109 107 106 105 104 104 103 102 101 101 101 101 101 101 102 103 104 106 107 107 107 106 106 106 107 109 113 117 123 128 132 135 138 139 140 141 142 144 145 146 148 149 150 152 152 153 154 155 155 155 155 154 153 151 149 147 144 141 138 134 132 130 129 130 131 132 134 136 138 138 139 139 138 137 137 136 135 134 133 132 130 128 124 121 118 115 113 111 110 110 109 109 109 111 113 115 118 120 122 123 124 124 124 124 124 124 124 124 124 125 125 126 126 126 128 131 134 137 140 143 145 147 149 151 153 155 157 159 161 162 162 162 162 162 161 160 161 162 163 164 164 163 163 163 164 166 168 170 172 173 173 172 172 171 171 171 172 172 172 172 171 171 171 171 171 171 170 169 168 166 164 161 159 157 156 156 157 159 161 163 165 165 164 162 160 158 156 154 152 150 148 146 145 143 143 143 145 146 146 145 143 139 135 131 127 124 122 122 122 123 125 126 126 126 125 124 122 121 121 122 123 124 126 129 131 134 137 140 143 145 148 149 151 151 150 150 150 150 151 153 154 156 158 160 162 164 166 168 169 170 169 168 166 163 161 158 156 154 153 152 151 151 151 150 149 148 147 145 145 144 144 144 144 143 143 143 143 144 145 146 145 144 142 140 138 136 135 133 132 131 131 131 132 133 135 138 141 143 145 146 147 146 145 143 141 140 139 138 138 138 138 139 139 138 138 137 137 137 138 140 142 145 147 150 151 152 152 152 151 150 149 147 146 144 143 141 141 140 140 139 138 136 134 132 130 129 128 128 126 125 122 120 116 113 111 109 109 110 111 112 113 114 114 114 113 112 110 109 108 108 110 113 116 120 122 125 126 128 130 131 132 133 133 132 131 129 128 128 128 130 131 133 134 135 134 133 130 127 124 122 120 119 119 119 119 119 119 117 116 114 112 111 111 111 111 111 111 112 112 113 115 117 120 121 123 123 123 123 122 120 119 117 116 114 112 110 108 107 107 106 106 106 106 107 108 110 112 114 114 114 113 112 110 108 105 102 100 97 95 94 93 92 92 92 91 90 89 89 89 91 93 96 100 103 105 106 106 107 107 107 107 108 108 108 108 109 109 110 111 111 112 112 113 114 116 118 119 121 122 123 124 125 127 129 131 133 133 134 134 134 135 135 135 135 135 136 137 138 140 142 144 146 149 151 154 156 157 158 159 159 159 160 161 163 165 167 169 171 172 173 174 175 176 178 179 181 182 183 185 185 186 187
175 175 176 176 177 178 179 179 178 176 174 172 171 170 169 169 170 170 170 169 168 167 167 166 165 165 164 163 162 161 160 159 158 158 157 156 154 153 152 150 147 145 142 138 135 132 129 127 125 124 124 124 125 125 126 128 129 130 132 133 134 135 136 137 137 138 138 138 139 139 139 139 140 140 140 139 138 136 135 133 131 130 128 125 121 118 114 111 109 107 105 104 104 103 102 102 101 101 102 102 102 102 103 104 105 107 108 108 108 107 106 106 107 110 113 117 122 126 130 133 136 137 138 139 140 141 143 144 145 146 147 149 150 152 153 155 156 157 156 155 153 151 149 146 143 140 136 133 130 128 127 128 129 131 133 135 137 138 139 139 139 138 137 136 136 135 135 133 131 128 125 121 117 114 112 110 110 109 109 109 109 111 113 116 119 122 124 126 126 126 126 125 125 124 124 124 125 126 127 127 127 128 129 131 134 136 139 142 144 146 149 151 153 156 158 159 161 162 162 162 161 160 159 158 158 159 160 161 161 161 161 161 162 163 165 167 168 169 169 168 168 168 169 170 171 173 173 174 174 174 174 174 174 173 171 170 168 165 163 160 158 155 154 154 155 157 159 161 162 163 162 160 159 157 155 153 152 150 148 146 144 143 143 144 145 147 147 146 144 140 136 132 129 126 124 123 124 124 125 126 127 126 125 124 122 121 121 121 123 124 126 129 131 134 137 139 142 144 146 148 149 150 150 149 150 150 151 153 154 156 158 160 162 164 167 169 170 171 170 169 166 164 161 158 156 154 153 152 152 152 151 151 150 149 147 146 145 144 144 144 145 145 145 145 145 146 146 147 147 146 144 142 140 137 135 134 133 133 133 134 136 137 139 141 142 144 145 145 145 145 144 143 141 140 139 138 137 137 136 136 136 135 135 135 135 135 136 138 140 143 146 148 150 151 151 151 150 149 148 146 145 143 142 141 140 139 139 138 137 135 133 131 130 129 128 128 127 125 123 121 118 116 114 113 113 113 114 115 116 117 117 117 116 114 113 111 110 110 112 115 118 121 124 126 127 129 130 131 131 132 132 131 130 129 128 127 128 128 129 130 130 130 130 128 126 123 121 118 116 116 116 116 117 117 117 116 115 113 112 111 111 111 111 111 112 113 114 115 117 119 121 123 124 125 125 124 123 121 119 118 116 114 113 112 111 110 109 108 108 108 108 109 110 112 113 114 115 115 114 112 110 107 105 102 99 96 94 93 92 91 91 91 90 90 89 89 90 92 94 97 100 103 105 106 106 107 108 108 108 109 109 109 108 108 108 109 110 111 112 112 114 115 117 118 120 122 124 125 126 127 128 130 131 132 133 134 135 135 136 136 136 136 136 136 137 138 139 141 144 146 149 151 154 156 157 158 159 159 159 160 160 161 163 164 165 167 169 170 172 174 176 177 179 181 183 184 185 186 187 188
176 176 177 178 179 180 180 180 180 178 175 173 172 171 171 171 172 173 173 172 171 170 168 167 166 165 165 164 163 163 162 161 160 159 158 157 156 155 153 151 149 146 143 140 136 133 129 127 124 123 122 122 123 124 126 127 129 130 131 132 133 134 135 136 137 138 139 139 140 140 140 140 140 140 139 138 137 135 133 131 129 127 125 123 120 116 113 111 108 106 105 104 103 102 102 102 101 102 102 102 102 102 103 105 106 108 108 109 108 108 107 107 108 111 114 117 121 125 129 131 134 135 136 137 138 139 141 141 142 143 144 145 147 149 152 155 157 158 157 156 154 151 148 145 142 138 135 131 128 126 125 126 127 130 132 134 136 138 139 139 138 138 137 136 136 136 135 134 132 129 125 121 117 114 111 110 109 108 108 108 109 111 113 116 120 124 127 128 129 129 128 127 125 124 124 124 125 127 128 129 129 129 130 131 133 135 138 140 143 146 148 151 153 156 158 160 161 161 162 161 160 159 157 156 155 156 157 158 159 159 159 159 160 161 162 163 165 165 165 165 165 166 167 169 171 173 174 176 177 177 178 177 176 174 172 169 167 164 161 158 156 154 152 152 153 154 157 159 160 160 159 158 157 156 154 152 151 149 147 145 144 143 143 144 146 147 147 147 144 141 137 133 130 127 125 125 125 125 126 127 127 127 125 124 122 121 121 121 122 124 126 129 132 134 137 139 141 143 145 147 148 149 149 149 150 151 152 153 154 156 157 160 162 165 167 170 172 172 172 170 167 164 161 158 156 154 153 153 152 152 152 152 151 149 148 146 145 144 144 145 146 147 148 147 148 148 148 149 148 148 146 144 141 138 136 134 134 134 136 138 139 141 143 144 144 144 144 144 144 143 143 142 142 141 140 138 137 135 134 133 132 132 132 132 133 133 134 136 138 141 144 147 149 149 149 149 149 148 147 145 144 142 141 139 138 138 138 137 135 134 132 131 129 128 128 127 126 125 123 121 120 118 117 116 116 117 118 119 120 120 120 120 119 117 115 114 113 113 114 117 120 123 126 127 128 129 130 130 130 131 130 130 129 128 127 127 127 127 127 126 126 125 125 124 122 120 117 115 114 113 113 114 115 115 115 115 114 113 112 111 111 111 112 112 113 114 115 117 119 120 122 124 125 126 126 125 123 121 120 118 117 115 115 114 113 113 112 111 110 110 110 111 112 114 115 115 115 115 114 112 110 107 104 101 98 95 93 92 91 90 90 90 90 90 90 90 91 93 95 98 100 103 105 106 106 107 108 109 109 110 109 109 108 107 107 108 109 110 112 113 114 116 117 119 122 124 126 128 129 129 130 131 132 132 133 134 136 137 137 138 138 138 138 137 137 138 139 141 143 146 148 151 153 155 157 158 159 159 159 160 160 160 160 161 162 163 165 167 170 172 175 177 179 181 183 185 186 187 188 188
177 177 178 179 180 181 182 182 181 179 177 174 172 172 172 173 174 175 176 175 174 172 170 169 167 166 166 165 165 165 164 163 163 161 160 159 158 156 154 152 150 147 145 141 137 134 130 126 123 121 121 121 122 123 125 127 129 130 131 132 133 133 134 135 136 138 139 141 142 142 142 141 141 140 139 137 136 134 132 129 127 125 123 121 119 116 113 111 108 106 105 104 103 102 102 102 102 102 102 102 102 103 104 106 107 109 109 109 109 108 108 109 110 112 114 117 121 124 127 130 132 133 134 135 136 137 138 139 139 140 141 142 144 147 151 154 157 158 157 156 154 150 147 144 140 137 133 129 126 124 123 124 125 128 131 133 135 137 138 138 138 137 137 136 136 136 135 134 133 130 125 121 117 113 110 109 108 108 108 108 109 110 113 117 121 125 129 131 131 131 129 127 125 124 124 124 125 127 128 130 130 130 130 131 132 134 136 139 142 145 148 151 153 156 158 159 161 161 161 161 160 158 155 154 153 154 155 156 157 157 157 158 158 159 160 161 161 162 161 162 162 164 165 168 170 172 175 177 179 180 180 179 178 175 172 169 166 163 160 157 154 152 150 149 150 152 154 156 157 157 156 156 155 154 152 151 149 147 145 144 143 142 142 143 145 146 147 146 144 142 138 134 131 128 126 126 126 126 127 127 127 127 126 124 122 121 120 121 122 124 126 129 132 134 136 139 141 142 144 145 147 147 148 149 150 151 152 153 154 155 157 159 162 165 168 170 172 173 173 171 168 164 160 157 155 154 153 153 152 152 152 152 151 150 148 147 145 145 145 146 148 149 150 150 150 150 151 151 150 150 148 146 143 140 137 136 135 136 138 141 143 145 146 147 146 145 144 143 143 142 142 142 142 141 140 138 136 133 131 130 129 129 129 130 130 131 133 134 137 140 143 146 147 148 148 148 148 147 146 144 143 141 140 138 137 137 136 136 134 133 131 130 129 128 127 127 126 125 124 122 121 120 120 120 120 121 121 122 123 124 124 123 122 120 118 116 115 115 116 119 122 125 127 129 129 130 130 130 129 129 129 128 128 127 127 127 127 126 125 123 122 121 121 120 118 117 115 113 111 111 111 112 113 114 114 113 113 112 112 112 112 112 112 113 114 115 117 118 120 122 123 125 126 127 127 126 124 122 120 119 117 117 117 117 116 116 115 114 113 113 113 114 115 116 116 117 116 116 114 112 110 107 104 101 98 95 93 91 91 90 90 90 90 90 90 91 92 94 96 98 101 103 104 105 106 107 108 109 110 110 110 109 108 107 106 107 108 110 112 113 115 117 118 121 123 126 129 130 131 132 132 132 132 133 134 135 137 138 139 140 140 140 139 138 138 138 139 140 143 145 148 151 153 155 156 157 158 159 159 159 159 159 158 158 158 159 161 164 167 170 173 176 178 180 183 184 186 188 189 189
178 178 179 180 181 182 183 184 183 180 178 175 174 173 173 175 176 178 178 178 176 175 172 170 169 168 167 167 167 167 166 165 164 163 162 161 159 157 155 153 151 148 145 142 138 134 130 126 122 120 119 120 121 123 125 127 128 130 131 132 132 133 134 135 137 138 140 142 143 143 143 142 141 140 139 138 136 134 132 129 126 124 123 121 119 116 114 111 109 107 105 104 103 103 102 102 102 103 103 103 103 103 105 106 108 110 110 110 109 109 109 109 110 112 115 117 120 123 126 128 130 132 133 134 134 136 136 137 137 137 138 140 142 145 149 153 156 157 157 155 153 150 146 142 139 136 132 128 125 123 122 122 124 127 129 132 134 136 137 137 137 137 136 135 135 135 135 135 133 130 126 121 117 113 110 108 108 108 107 108 109 110 113 117 122 126 130 132 132 131 130 127 125 124 123 123 125 126 128 130 130 130 130 130 131 132 135 137 140 144 147 150 153 155 157 159 160 161 161 160 159 157 154 152 151 152 153 155 155 156 156 157 157 158 158 159 160 160 160 160 161 163 165 167 170 172 175 178 180 181 181 181 179 176 172 169 165 162 159 155 153 150 148 148 148 149 151 153 155 154 154 153 152 151 150 149 147 145 143 142 141 140 141 142 144 145 146 146 144 141 138 134 131 129 127 126 126 127 127 128 128 127 126 124 122 121 120 121 122 124 126 129 131 134 136 138 140 141 143 144 145 146 147 148 149 150 151 152 153 155 156 159 161 164 167 170 172 173 173 171 168 164 160 157 155 154 153 153 152 152 152 152 151 150 148 147 146 145 145 147 149 151 152 152 153 153 153 152 152 152 150 148 144 141 139 137 137 138 141 144 146 148 149 149 148 146 144 143 142 142 142 142 142 141 140 137 135 132 129 128 127 127 127 128 129 130 131 133 135 138 142 144 146 147 147 147 146 146 145 143 142 140 139 137 136 136 135 134 133 132 130 129 128 127 127 127 126 126 124 123 122 122 122 122 123 124 124 125 126 126 127 126 125 123 120 118 117 117 118 120 123 126 128 129 130 130 130 129 129 128 128 127 127 126 126 126 126 125 123 121 120 119 118 117 116 115 113 111 110 109 110 111 112 113 113 113 112 112 112 112 112 112 112 113 114 116 117 119 121 123 124 126 127 128 128 127 125 123 121 120 119 118 119 119 119 118 118 117 116 115 115 116 117 118 118 118 118 117 115 113 111 108 105 101 98 95 93 91 91 90 90 90 90 90 91 92 93 95 97 99 101 103 105 105 106 108 109 110 111 111 111 110 108 107 106 107 108 110 112 114 116 118 119 122 125 128 130 132 133 134 134 133 133 134 135 136 138 139 141 141 142 141 141 140 139 139 139 141 143 145 148 151 153 154 156 157 157 158 158 158 158 157 156 155 155 156 158 161 164 168 172 174 177 179 181 183 185 187 188 188
179 179 180 181 182 184 185 185 184 182 179 177 175 175 175 177 178 180 181 180 179 177 175 173 171 170 170 169 169 169 168 167 166 165 163 162 160 158 156 154 151 148 145 141 138 133 129 125 121 119 118 119 120 122 124 126 128 129 130 131 132 133 134 135 137 139 141 142 144 144 144 144 143 141 140 139 138 135 133 130 127 125 124 122 120 118 115 113 110 108 106 105 104 104 103 103 103 104 104 104 104 105 106 107 109 110 111 110 110 109 109 109 110 112 114 117 120 123 125 127 129 130 131 132 133 134 134 135 135 135 136 137 140 143 147 151 154 156 155 154 151 148 145 141 138 134 131 127 124 122 121 121 123 126 128 131 133 135 136 137 136 136 135 135 135 135 135 134 132 129 125 121 117 113 110 109 108 108 108 108 109 110 113 117 122 126 130 132 132 131 129 127 124 123 122 122 123 125 127 128 129 129 129 129 130 131 133 136 139 143 146 149 152 155 157 159 160 160 161 160 159 157 154 152 151 152 153 154 155 156 156 157 157 158 158 159 159 160 159 160 161 162 165 167 170 172 175 178 180 181 182 181 179 176 172 169 165 161 158 155 152 149 147 146 146 147 149 151 152 151 151 150 149 148 147 145 144 142 140 139 138 138 139 140 142 143 144 144 143 140 137 134 131 129 127 127 127 127 128 128 128 128 127 125 123 121 121 121 122 124 126 129 131 133 135 137 139 140 142 143 144 145 146 147 147 149 150 151 152 153 155 157 160 163 166 169 172 173 172 170 167 163 159 156 155 153 153 153 152 152 152 152 151 150 149 147 146 145 146 148 150 152 153 154 154 154 154 154 154 154 152 150 147 144 141 140 140 141 143 146 149 151 151 151 150 148 145 144 143 142 142 142 141 141 139 137 134 131 128 126 126 126 126 127 127 129 130 132 134 137 140 143 145 146 146 146 145 145 144 142 141 139 137 136 135 134 134 133 132 131 129 128 127 127 127 127 127 126 125 124 124 124 124 124 125 126 127 128 129 129 129 129 127 125 123 121 119 119 120 122 125 127 129 130 130 130 129 129 128 128 127 126 126 125 125 125 124 123 122 120 118 117 117 116 115 114 112 111 109 109 109 110 112 112 112 112 112 112 112 111 111 111 112 113 114 116 117 119 121 123 125 126 128 129 129 128 127 125 123 122 121 121 121 121 122 121 120 119 118 118 118 118 119 120 120 120 119 118 117 115 112 109 106 102 98 96 93 92 91 91 91 91 91 91 91 92 94 95 97 100 102 104 105 106 107 108 109 110 111 112 111 110 109 107 107 107 109 110 113 115 117 119 120 123 126 129 132 134 135 135 135 135 135 136 137 138 140 141 143 143 144 143 143 142 141 140 141 142 144 146 149 151 153 154 155 156 156 156 156 156 155 154 153 152 152 153 155 158 161 165 169 172 174 176 179 181 183 185 186 186
179 180 181 182 183 185 186 186 186 184 181 179 178 177 178 179 181 182 182 182 180 179 176 175 173 172 171 171 170 170 169 168 166 165 164 162 161 159 156 154 151 148 145 141 137 133 128 124 121 118 118 118 119 121 123 125 127 128 130 130 131 132 133 135 137 139 141 143 145 145 145 145 144 143 141 140 139 137 134 132 129 127 126 124 122 120 118 116 113 111 109 107 106 105 105 105 105 106 106 106 106 107 108 109 110 111 111 111 110 110 110 110 111 112 114 117 120 122 124 126 128 129 129 130 130 131 132 132 133 133 134 135 138 141 145 148 151 153 153 151 149 146 143 139 136 133 130 126 123 121 121 121 123 125 127 130 132 133 134 135 135 134 134 133 133 134 134 133 132 129 125 121 117 113 111 110 109 109 109 109 110 111 114 118 122 126 130 132 132 131 128 126 124 122 121 121 122 124 126 127 127 127 127 127 128 129 132 134 138 141 145 148 151 154 156 158 159 160 160 160 159 157 155 153 152 153 154 155 156 156 157 157 158 158 159 160 160 161 160 161 162 163 165 167 169 172 175 178 180 181 182 181 179 176 172 168 165 161 158 155 152 149 147 146 146 146 148 149 149 149 148 146 145 144 143 141 139 138 137 136 136 136 136 138 139 140 141 141 140 138 135 133 130 128 127 127 127 127 127 127 127 127 126 124 123 121 121 121 122 124 126 129 131 133 135 136 138 139 140 141 142 143 144 145 145 146 147 149 150 151 153 156 158 161 165 168 170 171 171 169 167 163 160 157 155 154 153 153 153 153 153 152 151 150 149 147 146 146 147 149 151 153 155 155 156 156 156 156 156 156 155 152 150 147 145 143 143 144 146 148 150 152 152 152 150 148 146 144 143 142 142 142 141 140 138 136 133 130 128 126 126 126 126 127 127 128 130 131 134 137 140 142 144 145 145 145 144 143 142 141 139 138 136 135 134 134 134 133 132 130 129 128 127 127 127 127 127 126 125 125 125 125 125 126 127 128 129 130 131 131 132 131 130 128 125 123 122 121 122 123 126 128 129 130 130 130 129 128 128 127 126 125 124 123 123 123 123 122 120 119 118 117 116 116 115 114 113 112 110 109 110 110 111 112 112 111 111 111 111 111 111 111 111 112 113 115 117 119 121 123 125 127 128 130 130 130 129 127 126 125 124 123 123 123 123 123 122 121 121 121 121 121 122 123 123 123 122 121 119 117 113 110 106 103 99 96 94 93 92 92 92 92 92 92 92 93 94 96 98 100 102 104 105 106 107 108 110 111 112 113 112 111 110 108 108 108 110 112 114 116 119 120 122 124 127 130 133 134 136 136 137 137 137 138 139 140 142 143 145 146 146 146 145 144 143 143 143 144 145 147 149 151 152 153 154 154 155 155 155 154 153 152 151 150 149 150 152 155 159 162 166 169 171 173 175 177 179 181 182 183
180 180 181 183 184 186 187 188 188 186 184 183 181 181 181 182 183 184 184 184 182 180 178 176 175 174 173 172 171 170 169 167 166 165 164 163 161 159 157 154 151 147 144 140 136 132 128 124 120 118 117 118 119 121 123 125 127 128 129 130 130 131 132 134 136 139 141 144 146 147 147 146 145 144 142 141 140 138 136 133 131 129 128 127 126 124 123 121 118 116 113 111 109 108 107 107 108 109 109 110 110 110 111 111 112 112 112 111 111 110 110 111 111 113 115 117 119 122 124 126 127 127 127 127 127 128 129 129 130 130 131 133 135 138 142 145 148 149 149 148 146 143 140 137 134 131 128 125 123 122 121 121 122 124 126 127 129 131 132 132 132 132 132 131 131 132 132 132 131 128 125 121 118 115 112 111 111 110 110 110 111 113 115 119 123 127 130 132 132 130 128 126 123 121 120 121 121 123 124 125 125 125 125 125 126 127 129 132 136 140 144 147 151 153 156 158 159 159 160 159 159 157 156 154 154 155 156 157 157 158 158 158 159 160 161 161 162 163 162 162 163 163 165 166 169 172 174 177 179 180 181 180 178 175 172 168 164 161 157 155 153 150 149 147 146 146 147 147 147 146 144 143 141 139 137 135 134 133 133 133 133 133 134 135 136 136 136 136 135 134 132 130 129 128 127 126 126 126 126 126 125 125 124 123 122 121 120 120 121 123 126 128 130 132 134 136 137 138 139 140 141 141 141 142 143 144 145 146 147 149 151 153 156 159 163 166 168 169 169 168 166 163 160 157 156 154 154 153 153 153 153 152 152 150 149 147 146 146 148 150 153 155 157 157 158 158 158 158 158 158 157 155 153 151 149 148 147 148 148 150 151 152 152 151 150 148 146 144 143 142 141 141 141 140 138 136 133 131 128 127 126 126 127 127 128 129 131 132 134 137 139 141 143 143 144 143 142 141 140 139 137 136 135 135 134 134 134 133 131 130 129 128 127 127 127 127 127 126 126 126 125 126 126 127 128 129 130 132 133 134 134 134 132 130 128 126 125 124 124 125 127 128 129 130 130 130 129 128 127 127 125 124 122 121 120 120 120 120 119 118 117 117 116 116 116 116 115 114 112 111 111 111 111 111 111 111 111 110 110 110 110 111 111 111 112 113 115 117 120 122 125 127 129 131 132 132 131 130 129 128 127 126 126 126 125 124 124 124 124 124 124 125 125 126 126 126 125 123 122 119 115 111 107 103 99 97 95 94 94 94 94 94 94 94 94 94 96 97 99 101 102 104 105 106 107 109 110 112 113 114 114 113 111 110 109 110 111 113 116 119 121 123 125 127 129 131 133 135 136 137 138 138 139 140 141 142 144 146 147 148 148 148 147 147 146 146 146 147 148 149 150 151 151 152 152 153 153 153 153 152 151 150 148 147 147 148 149 152 155 159 162 165 167 169 171 173 174 176 177 178
179 180 181 183 186 188 189 190 190 189 187 186 185 185 185 185 186 186 186 185 183 181 179 177 176 175 174 173 171 170 168 166 164 163 163 162 161 160 157 154 150 146 142 138 135 131 127 123 120 118 117 118 119 121 123 125 126 127 128 129 129 130 131 133 135 138 141 144 147 148 148 147 146 145 144 142 141 139 137 135 133 131 130 129 129 129 128 126 124 121 118 115 113 111 110 110 111 112 113 114 114 114 114 114 113 113 112 112 111 111 111 111 112 114 115 117 120 122 123 125 126 126 125 124 124 125 125 126 127 128 129 131 133 136 139 142 144 145 145 144 143 140 138 135 132 130 127 125 123 122 122 122 122 123 124 125 126 128 129 129 129 129 129 129 129 130 130 130 129 127 124 121 118 116 114 113 113 112 112 112 113 114 117 120 124 127 130 132 132 130 128 126 123 121 120 120 121 121 123 123 124 124 123 123 124 125 127 130 134 138 142 147 150 153 155 157 158 159 159 159 159 158 157 156 156 157 158 159 159 160 160 160 161 161 163 164 165 165 165 165 164 164 165 166 168 171 173 176 178 180 180 180 178 175 171 168 164 160 158 156 154 152 151 149 148 147 146 146 145 144 141 139 136 134 131 129 128 128 129 129 130 131 132 132 132 132 131 130 130 129 128 128 127 127 127 126 125 124 124 123 123 123 122 121 120 120 119 120 121 123 126 128 130 132 134 135 136 137 138 138 139 139 139 139 140 141 142 143 144 146 148 151 154 157 160 163 166 167 167 166 165 162 160 158 156 155 154 154 153 153 153 153 152 150 149 147 147 147 148 151 154 157 159 159 160 160 160 160 160 160 159 158 156 155 153 152 151 151 151 151 151 151 151 151 150 148 146 144 143 142 141 141 140 139 138 135 133 131 129 128 128 128 128 129 129 131 132 133 135 137 139 140 142 142 142 142 140 139 138 136 135 135 134 134 134 134 134 133 131 130 129 128 128 127 127 127 127 127 126 126 126 127 127 128 129 130 132 133 135 136 136 136 134 133 131 129 127 127 126 127 128 129 129 130 130 129 129 128 127 126 125 123 121 119 118 117 117 117 117 117 117 117 117 117 118 118 118 117 116 114 113 112 111 111 110 110 110 110 110 110 110 110 110 110 110 111 113 115 118 121 124 127 129 131 132 133 133 133 132 132 131 129 128 127 126 126 125 125 126 127 127 128 128 129 129 128 127 126 124 121 117 112 108 103 100 97 96 96 96 96 96 96 96 95 95 96 97 98 100 101 102 103 104 105 106 109 111 113 114 115 115 114 113 112 111 112 113 115 118 121 124 127 128 130 131 133 134 135 137 138 139 140 141 142 143 144 146 147 149 150 150 150 150 149 149 149 149 150 150 150 150 150 150 151 151 151 151 151 151 150 149 147 146 145 144 145 147 149 152 156 159 161 163 165 166 167 169 170 172 173
180 180 182 184 187 189 191 192 192 191 191 190 189 189 189 189 189 188 187 186 184 182 180 178 177 176 175 173 171 169 166 164 163 162 162 161 161 159 156 153 149 145 141 137 134 131 127 124 121 119 118 119 120 121 123 125 126 127 128 128 128 129 130 132 134 138 142 145 148 149 150 149 148 146 145 144 142 141 139 137 135 133 132 132 133 133 133 132 129 126 123 119 116 114 113 113 113 115 116 118 118 118 117 116 115 114 113 112 112 112 112 112 113 115 116 118 120 122 123 124 125 124 123 122 121 121 122 123 124 125 127 129 131 133 136 139 140 141 141 141 139 138 135 133 131 128 127 125 124 123 123 123 122 122 123 123 124 125 125 126 126 126 126 126 126 127 128 129 128 126 123 121 119 117 116 115 115 114 114 114 115 116 118 121 125 128 131 132 132 130 128 126 123 121 120 119 120 120 121 122 122 122 122 122 122 123 125 128 132 137 141 146 149 152 154 157 158 159 159 159 159 159 158 158 159 160 161 161 162 162 162 162 162 163 165 166 167 168 167 167 166 165 165 165 167 170 173 175 177 179 179 179 177 174 171 167 163 160 158 156 155 154 153 151 149 147 146 145 143 141 139 135 132 128 125 123 123 123 124 126 128 129 129 129 128 127 126 125 124 124 124 125 125 126 126 125 124 123 121 120 120 120 120 119 119 119 119 119 121 123 126 128 130 132 133 135 135 136 137 137 137 137 137 137 137 138 139 140 142 144 146 148 151 155 158 161 164 165 165 165 164 162 160 159 157 156 154 154 153 153 153 152 151 150 148 147 147 147 149 152 156 159 161 162 162 162 162 162 162 162 161 161 159 158 157 156 155 154 153 152 151 151 151 150 149 148 146 144 142 141 140 140 140 139 137 135 134 132 130 129 129 129 129 130 131 132 133 134 136 137 139 140 141 142 141 140 139 137 136 134 134 133 134 134 134 134 134 133 131 130 129 128 128 128 128 128 127 127 127 127 127 128 128 129 130 131 133 135 136 138 138 138 136 135 133 131 130 129 129 129 129 130 130 130 130 130 129 129 128 126 125 122 119 117 115 115 115 116 116 117 118 118 118 119 120 121 121 120 119 117 115 113 112 110 110 110 109 110 110 110 110 110 110 109 109 110 111 114 117 120 124 127 130 132 133 134 135 135 135 135 134 132 131 129 128 127 127 127 128 129 130 131 131 131 131 131 130 128 126 123 118 113 108 103 100 97 97 97 97 98 98 98 98 97 97 97 98 99 101 102 102 103 103 104 106 109 111 114 116 117 117 116 114 113 113 113 115 117 121 124 127 130 132 133 134 134 135 136 137 139 140 142 143 144 145 146 147 149 150 151 152 152 151 151 151 151 152 152 152 152 151 150 150 149 150 150 150 150 150 149 147 146 144 143 142 143 145 147 150 153 156 158 159 161 161 162 163 165 166 168
180 181 183 186 188 191 193 194 194 194 193 193 192 192 192 192 191 190 189 187 185 183 181 179 177 176 175 173 171 168 165 163 161 160 160 160 160 158 155 152 148 144 140 136 134 131 128 125 122 121 120 120 121 123 124 126 127 127 128 127 128 128 129 131 134 138 142 146 149 151 151 150 149 148 146 145 144 142 141 139 137 136 135 136 137 138 138 137 134 131 127 123 119 117 115 115 116 118 119 121 121 121 120 118 116 115 114 113 113 113 113 114 114 115 117 118 120 121 123 124 124 123 121 119 118 118 119 120 121 123 125 127 129 131 134 136 137 138 138 138 137 135 133 131 129 127 126 125 124 123 123 123 123 122 121 121 121 122 122 123 123 123 123 122 123 124 126 127 126 125 123 121 119 118 117 117 116 116 115 115 116 117 119 122 126 129 131 132 132 130 128 125 123 121 119 119 119 119 120 120 121 120 120 120 120 121 124 127 131 136 140 145 149 152 154 156 157 158 159 159 159 159 159 160 160 162 163 163 163 163 163 163 164 165 166 167 169 169 169 168 167 166 165 165 167 170 172 174 177 178 178 178 176 174 170 167 163 160 158 157 156 155 154 151 149 147 145 143 141 139 135 132 128 124 120 118 117 118 120 122 124 126 126 125 124 122 120 119 119 119 120 122 123 124 124 124 122 121 119 118 118 118 118 118 117 118 118 119 120 123 126 128 131 132 133 134 135 135 136 136 136 135 135 135 135 136 137 138 139 141 143 146 149 153 156 159 162 163 164 163 163 162 160 158 157 155 154 153 152 152 152 151 150 149 148 147 147 148 150 153 157 160 163 164 164 164 164 164 164 164 164 163 163 162 161 160 159 158 156 154 152 151 151 150 149 147 145 144 141 140 140 140 139 139 137 135 134 132 131 130 130 130 130 131 132 133 134 135 136 138 138 139 140 141 141 139 138 136 134 133 132 132 133 134 134 134 134 133 131 130 129 129 129 129 129 128 128 128 128 128 128 129 130 131 132 133 135 137 138 139 140 139 138 137 135 134 133 132 131 131 131 131 131 131 131 130 130 129 128 127 125 122 119 116 114 114 114 115 116 117 118 119 119 120 122 123 124 123 122 120 118 115 113 111 110 110 110 110 110 110 110 110 109 109 109 109 110 113 116 119 123 127 130 132 134 136 137 137 138 137 137 135 133 131 130 129 128 129 130 132 133 133 133 133 133 132 131 129 127 123 118 113 108 103 100 98 97 98 99 100 100 100 99 98 98 98 99 100 101 102 102 103 103 104 106 109 112 115 117 118 118 117 116 115 115 115 117 120 123 127 130 133 135 136 136 136 137 138 139 141 142 144 145 146 146 147 148 150 151 152 152 152 152 152 152 153 153 154 154 153 152 150 149 149 149 149 149 149 148 148 146 144 142 141 140 141 143 145 148 150 153 155 156 157 157 158 159 160 161 164
182 183 185 187 190 193 195 196 196 196 196 195 195 195 194 194 193 192 190 189 186 184 181 179 177 176 175 173 171 168 164 162 160 159 159 159 158 157 154 150 146 142 139 136 134 132 129 127 124 123 122 123 124 125 126 127 128 128 128 128 128 128 129 131 134 138 143 147 150 152 152 152 151 150 148 147 146 145 143 141 140 139 138 139 140 141 142 141 138 135 131 126 123 120 118 118 119 120 122 123 123 123 122 120 118 117 115 115 114 114 114 115 116 116 118 119 120 122 123 123 123 122 120 118 117 116 117 118 119 121 122 125 127 129 132 134 135 136 136 136 135 134 132 130 128 127 126 125 124 124 124 123 122 122 121 120 120 120 120 120 120 120 120 119 120 122 123 124 125 123 122 120 119 118 118 117 117 116 116 116 116 118 120 123 126 129 131 132 132 130 128 125 122 120 119 118 118 118 119 119 119 119 119 119 119 120 123 126 130 134 139 144 148 151 153 155 157 158 159 159 160 160 160 161 161 163 164 164 164 164 164 164 164 165 167 168 170 170 170 169 168 166 165 165 167 169 171 174 176 177 178 177 175 173 170 166 163 159 157 156 156 155 153 151 149 146 144 141 139 136 133 129 124 120 116 114 114 114 116 119 121 122 122 121 120 118 116 115 115 115 117 118 120 121 122 122 121 119 118 117 116 116 116 116 116 117 117 118 120 123 126 129 131 132 133 134 135 135 135 135 135 134 133 133 133 134 135 136 138 140 142 145 148 151 155 158 161 162 163 162 162 161 159 158 156 154 153 152 151 150 150 150 149 148 147 146 147 148 151 154 158 162 164 166 166 167 166 166 166 166 166 166 165 165 164 163 162 160 158 156 154 153 152 151 149 148 145 143 141 140 139 139 139 138 137 135 134 132 131 131 131 131 131 131 132 133 134 135 137 138 138 139 140 141 140 139 138 136 134 133 132 132 133 134 134 134 134 133 131 130 129 129 129 129 129 129 129 129 130 130 130 131 132 132 133 135 136 138 140 141 141 141 140 139 137 136 135 134 133 133 133 133 133 132 132 131 131 130 129 127 125 122 119 116 114 113 114 115 116 117 119 119 120 121 123 125 126 126 124 122 119 117 114 112 111 111 110 110 111 111 111 111 110 109 109 109 110 112 116 119 123 127 130 132 134 136 138 139 139 139 138 137 135 133 132 131 131 131 132 134 135 135 134 134 133 132 131 129 127 123 118 113 108 103 100 98 98 99 100 101 101 101 100 100 99 99 100 101 102 103 103 103 104 105 107 109 113 116 118 119 119 119 118 117 116 117 119 121 125 129 133 135 137 138 139 139 140 140 142 143 145 146 147 148 148 148 149 150 151 152 152 152 152 152 153 153 154 155 155 154 152 151 150 149 149 149 149 149 148 147 145 144 142 140 140 140 142 144 146 149 151 152 153 154 154 154 155 156 158 160
185 185 187 190 192 195 196 197 198 198 198 198 197 197 197 196 195 194 192 190 187 184 181 179 177 176 175 173 170 167 164 161 159 158 158 157 156 154 151 148 144 141 138 135 134 133 131 129 127 126 126 126 127 127 128 129 129 129 129 128 128 128 129 131 135 139 144 148 151 153 154 154 153 152 151 150 149 148 146 144 143 142 142 143 144 145 146 145 142 139 135 130 126 123 122 121 121 123 124 125 126 125 124 122 120 118 117 116 116 116 116 116 117 118 119 120 121 122 122 123 122 121 119 117 116 115 116 117 118 119 121 123 125 128 130 133 134 135 135 135 134 132 131 129 127 126 125 124 123 123 123 123 122 121 119 118 118 118 118 118 118 117 117 117 118 120 121 123 123 122 121 120 118 118 117 117 116 116 116 116 117 119 121 123 126 129 130 131 131 130 127 125 122 120 119 118 117 117 118 118 118 118 118 118 118 119 121 125 129 133 138 143 147 150 152 155 156 158 159 159 160 160 160 161 162 163 164 164 164 164 164 164 164 165 167 168 169 170 170 169 168 166 165 166 167 169 171 174 175 177 177 176 175 172 169 166 162 159 157 156 155 154 153 150 147 145 142 139 136 133 129 125 121 117 113 111 110 111 112 114 116 117 117 116 115 113 112 111 111 112 113 115 117 119 120 120 119 118 117 116 115 115 115 116 116 117 117 119 121 123 126 129 131 132 133 134 134 134 133 133 133 132 132 131 132 132 134 135 136 138 140 143 147 150 154 157 159 161 161 161 160 159 158 156 154 152 151 150 149 148 148 148 147 147 146 146 147 148 151 155 159 163 166 167 168 168 168 168 168 168 168 168 167 166 166 165 164 162 160 158 156 154 153 152 150 149 146 144 142 140 139 139 139 138 136 135 134 133 132 131 131 131 131 132 132 133 134 135 136 137 138 139 140 141 141 140 138 136 135 133 133 132 133 133 134 133 133 132 131 130 130 130 130 131 131 131 132 132 132 132 133 133 134 134 135 136 138 140 142 143 143 143 142 141 139 138 137 136 136 135 135 134 134 134 133 133 132 131 130 128 126 122 119 116 114 113 114 115 116 118 120 121 122 123 125 126 127 127 125 123 121 118 116 114 113 112 112 112 112 112 112 112 111 110 110 110 111 113 116 120 123 127 129 132 134 136 138 139 140 140 140 139 137 135 134 133 132 133 134 135 136 136 135 134 133 132 130 128 125 122 117 113 108 104 101 99 99 100 101 102 102 102 101 100 100 100 100 102 103 103 104 104 104 105 107 110 113 116 119 120 120 120 119 118 118 119 120 123 127 131 135 138 140 141 142 142 143 144 145 147 148 149 149 149 149 148 149 149 150 151 151 151 151 152 152 153 154 155 155 155 153 152 151 150 149 149 149 149 148 147 145 143 142 140 140 140 142 144 145 147 149 150 151 151 151 151 152 153 155 157
188 189 190 192 194 196 197 199 199 200 200 200 200 200 199 198 197 196 194 191 188 185 181 178 176 175 174 172 170 167 164 161 159 157 156 155 154 151 148 145 141 139 136 135 134 133 132 131 130 129 129 129 129 130 130 130 129 129 129 128 128 128 129 132 135 139 144 149 152 155 156 156 156 155 154 153 152 151 149 148 147 146 146 147 148 149 150 149 146 143 138 134 130 127 125 124 124 125 126 127 127 127 126 124 122 120 118 117 117 117 117 118 119 119 120 121 122 122 122 123 122 121 119 117 116 116 116 117 117 119 120 122 125 127 130 132 134 135 135 134 133 131 129 127 126 124 124 123 123 122 122 122 121 120 118 117 116 116 116 116 116 117 117 117 117 119 120 121 121 121 120 119 117 116 115 115 115 115 116 117 118 120 122 124 126 128 129 130 129 128 126 124 122 120 119 118 117 116 116 116 116 116 116 116 116 118 120 123 128 132 137 142 146 149 152 154 156 157 158 159 160 160 160 161 161 162 163 164 164 163 163 163 164 165 166 168 169 169 169 169 168 167 166 167 168 170 172 174 175 176 177 176 175 172 169 165 161 158 156 155 155 154 152 149 147 143 140 137 134 131 127 123 118 114 111 109 108 108 109 110 111 111 112 111 110 109 108 107 107 108 110 112 115 117 118 118 118 117 116 116 115 115 116 116 116 117 118 120 122 124 127 129 131 132 133 133 133 132 131 131 131 130 130 130 131 132 133 134 135 137 139 142 146 149 152 155 158 159 160 159 159 158 156 154 152 150 149 148 147 147 147 146 146 146 145 146 147 149 152 156 160 163 166 167 168 169 169 170 170 170 170 169 168 167 166 165 165 163 161 160 158 156 155 153 152 150 148 146 143 142 140 139 138 137 136 134 133 132 132 131 131 131 131 131 131 132 133 134 135 137 138 139 140 141 141 140 139 137 136 135 134 133 133 133 133 132 132 132 131 131 131 132 132 133 134 134 135 135 135 135 135 135 135 136 136 137 139 141 143 145 145 145 144 143 141 140 139 138 137 137 136 135 135 134 134 133 133 132 131 129 126 123 119 116 114 114 114 116 117 119 121 123 124 125 126 127 127 127 125 124 121 119 117 115 114 113 113 113 113 113 114 113 113 112 112 112 113 115 118 120 123 126 129 131 134 136 138 140 141 141 141 140 138 136 135 134 134 134 135 136 136 136 135 133 132 130 128 126 123 120 116 112 108 105 102 101 101 101 102 103 103 103 102 101 100 99 100 101 103 103 104 104 105 106 108 110 113 116 118 120 121 121 120 120 119 120 122 125 129 133 137 140 142 144 144 145 146 147 148 150 150 151 150 150 149 148 148 148 148 148 148 148 149 150 151 153 154 155 156 155 154 153 152 151 150 150 149 149 148 147 145 144 142 141 141 142 143 144 146 147 148 149 149 149 149 149 149 150 152 155
192 193 193 194 196 197 198 199 200 201 201 202 202 202 201 200 199 197 195 192 189 185 181 177 175 174 173 171 169 166 163 161 158 156 154 153 151 148 145 142 139 137 135 134 134 133 133 133 133 133 133 133 132 132 131 130 129 129 128 128 128 128 129 132 135 140 145 150 153 156 157 158 158 158 158 157 156 155 153 152 150 150 150 151 152 153 153 152 150 146 142 137 133 130 128 127 127 127 128 129 129 129 127 125 123 121 119 118 118 118 119 120 120 121 121 122 122 123 123 122 122 121 119 118 117 117 117 117 118 119 120 122 125 127 130 133 135 136 136 135 133 130 128 125 124 123 122 122 122 121 121 121 120 119 117 116 115 114 114 115 116 116 117 117 117 118 119 120 120 120 119 117 116 114 113 113 113 114 116 118 120 122 124 125 126 127 127 127 127 126 125 124 122 121 120 118 117 115 114 113 113 113 113 114 115 117 119 122 127 131 136 141 145 148 151 153 155 157 158 158 159 159 160 160 161 162 162 163 163 163 162 163 163 164 165 167 168 168 168 168 168 167 167 168 169 171 173 174 176 177 177 176 175 172 168 165 161 158 156 155 154 153 152 149 146 142 139 135 131 128 124 120 116 113 110 108 107 106 106 106 106 106 106 106 105 104 104 103 104 105 107 110 112 114 116 116 117 116 116 116 116 116 116 117 117 118 119 121 123 125 127 129 130 132 132 132 131 130 129 128 128 128 129 129 130 131 132 133 135 136 138 141 145 148 151 154 156 157 158 158 157 156 154 152 150 148 147 146 145 145 145 145 145 145 145 145 147 149 152 156 159 163 165 167 168 169 170 171 171 171 171 170 169 167 166 165 164 164 162 161 159 158 156 155 154 152 151 149 146 143 141 139 138 136 135 134 133 132 132 132 132 131 131 131 131 131 132 133 134 136 138 139 141 141 142 141 140 139 138 137 136 134 133 132 132 131 131 131 132 132 133 134 135 135 136 137 138 138 139 138 138 137 137 137 137 138 140 143 145 147 147 147 146 144 143 141 140 140 139 138 137 136 135 134 134 134 133 133 132 130 127 123 120 117 115 114 115 116 118 121 123 125 126 127 127 127 127 126 125 123 122 120 118 117 115 115 114 115 115 115 115 115 115 115 114 115 116 117 119 121 123 125 127 130 133 135 138 140 141 141 141 140 139 137 136 135 135 135 136 136 136 136 134 132 130 128 125 123 120 118 115 112 109 107 104 103 102 103 103 104 104 103 102 101 100 99 100 101 102 103 104 105 105 106 108 110 113 116 118 119 120 121 121 120 121 121 123 126 130 135 139 142 144 146 147 148 149 150 152 153 153 152 152 150 149 148 147 146 145 145 145 145 146 148 150 152 154 155 156 156 155 154 153 152 151 151 150 150 149 147 146 145 144 143 143 144 145 145 146 147 147 148 148 148 147 147 147 148 150 153
196 196 196 197 197 198 199 200 201 202 203 203 204 204 203 202 201 199 196 193 190 185 181 177 174 173 172 170 168 166 163 160 158 155 153 151 148 146 142 139 137 135 134 133 133 134 134 135 135 136 136 136 135 133 132 130 129 128 128 127 128 128 130 132 136 140 146 151 155 157 159 160 161 161 161 160 159 158 157 155 154 154 154 155 156 157 157 156 153 149 145 141 137 133 131 130 129 130 130 131 131 130 129 127 124 122 120 120 119 120 120 121 122 122 123 123 123 123 123 123 122 121 120 119 118 118 118 118 118 119 121 122 125 127 130 133 135 136 136 135 132 129 126 124 122 121 120 120 120 120 120 120 119 118 116 114 113 112 112 114 115 116 117 117 117 118 118 119 119 119 118 116 114 112 111 110 111 113 115 118 121 123 125 126 126 126 125 125 124 124 124 123 123 122 120 118 116 114 112 111 111 111 111 112 114 115 118 121 126 131 136 141 145 148 150 153 155 156 157 158 159 159 159 159 160 161 161 162 162 162 161 162 162 163 164 165 166 167 167 167 167 167 168 169 170 172 173 175 176 177 177 176 174 171 168 164 160 157 155 154 154 153 151 148 145 141 137 133 129 126 122 118 114 111 109 107 105 104 103 102 101 101 101 101 101 101 100 100 101 102 105 107 110 113 114 115 116 116 116 116 116 116 117 117 118 119 120 122 124 125 127 129 130 131 131 131 129 128 127 126 126 126 127 128 129 131 132 133 134 136 138 141 144 147 150 152 154 155 156 156 155 154 152 150 148 146 145 144 144 144 144 144 144 144 144 145 147 149 153 156 159 162 164 166 168 169 170 171 172 172 172 171 169 167 165 165 164 164 163 162 161 159 158 156 155 155 153 151 148 146 143 140 137 135 134 133 133 132 132 132 132 132 131 131 130 130 131 132 134 136 138 140 141 142 142 142 142 141 140 139 137 136 134 132 131 130 130 131 132 133 135 136 137 138 139 140 141 141 142 141 140 139 138 137 138 139 141 144 147 149 149 149 148 146 144 143 142 141 140 139 137 136 135 134 134 134 134 133 132 130 128 124 120 117 115 114 115 117 120 122 125 127 128 128 128 128 127 125 124 123 122 120 119 118 116 116 116 116 117 117 117 117 117 117 117 117 118 120 121 122 123 124 126 129 132 135 137 139 141 142 142 141 139 138 136 135 135 135 136 136 136 135 134 132 129 126 123 120 118 116 114 112 110 108 106 105 104 104 104 104 105 104 103 101 100 99 99 100 102 103 104 105 106 107 108 111 113 115 117 119 120 121 121 121 121 122 124 127 132 136 141 144 146 148 149 150 152 153 155 155 155 154 152 151 149 147 146 144 143 143 142 143 144 146 149 151 153 155 156 156 156 155 154 153 152 152 151 150 149 148 147 146 145 144 145 145 146 147 147 147 147 147 147 146 146 145 146 147 149 151
199 199 199 198 198 199 199 201 202 203 204 205 205 205 205 204 202 200 198 194 190 186 181 177 174 172 171 170 168 166 163 161 158 155 153 150 147 144 141 138 135 134 133 133 134 134 135 136 137 138 138 138 137 135 133 131 130 129 128 128 128 129 130 133 136 141 147 152 156 158 160 162 163 164 164 163 162 161 160 158 157 157 157 158 159 160 160 159 156 152 148 144 140 136 134 133 132 132 132 132 133 132 130 128 126 124 122 121 121 121 122 123 124 124 124 124 124 124 124 123 122 121 121 120 119 119 119 119 119 120 121 122 125 127 130 133 135 136 136 135 132 128 125 122 120 119 119 119 119 119 119 118 117 116 114 113 111 110 111 112 114 116 117 117 117 117 118 118 118 118 117 115 113 111 109 108 109 111 115 118 122 124 126 126 126 125 124 123 123 123 123 123 123 122 121 119 116 114 111 110 109 109 110 111 113 115 117 121 125 130 135 140 144 147 150 152 154 155 157 158 158 158 158 158 159 160 160 161 161 161 160 161 161 162 163 164 165 166 166 166 166 167 168 169 170 172 173 175 176 176 177 176 174 171 167 163 159 156 154 154 153 152 150 147 144 140 136 132 127 124 120 116 113 110 108 106 104 103 101 99 98 97 97 98 98 98 98 98 99 100 103 106 109 111 113 114 115 116 116 116 116 116 117 117 118 120 121 123 124 126 127 128 129 130 130 129 128 126 125 124 124 125 126 127 129 130 131 132 133 135 137 140 143 146 149 151 153 154 154 154 154 152 151 149 146 145 143 143 143 142 142 142 143 143 144 145 147 149 153 156 159 161 164 165 167 169 170 171 172 173 172 171 169 167 165 164 164 164 163 163 162 160 159 158 157 156 155 153 151 148 144 141 138 135 134 133 133 133 133 133 133 133 132 131 130 130 130 131 133 136 138 140 142 143 143 143 143 143 142 141 139 137 134 132 131 130 130 131 132 134 136 137 138 140 141 142 143 144 144 143 142 140 139 138 138 139 142 145 148 150 151 150 149 147 145 144 143 142 141 139 138 136 135 134 134 134 134 134 133 131 128 124 121 118 115 115 115 118 120 124 126 128 129 130 129 128 126 125 123 122 121 121 120 119 117 117 116 117 118 118 119 118 118 118 118 119 120 121 122 122 123 124 125 128 131 134 137 139 141 142 142 141 139 138 137 136 136 136 136 137 136 135 134 131 128 125 122 119 116 115 113 112 111 110 108 106 106 105 105 105 105 105 103 101 100 99 99 100 102 103 104 106 107 107 109 111 113 115 117 119 120 121 121 122 122 123 125 129 133 138 142 145 148 150 151 152 154 155 157 157 157 155 153 151 149 147 145 143 142 141 141 141 143 145 148 151 153 155 156 157 157 156 156 154 153 152 152 151 150 149 147 146 146 146 146 147 148 148 147 147 147 146 146 146 145 145 145 146 147 150
201 200 200 200 199 199 200 201 203 204 205 206 206 206 206 205 203 201 199 196 191 187 182 177 174 173 172 171 169 167 164 162 159 156 153 151 148 144 141 138 136 135 134 134 134 135 136 138 139 140 140 140 138 136 134 132 130 129 129 129 129 130 131 134 138 142 148 153 157 160 162 163 165 166 166 166 165 164 162 161 160 159 160 160 162 162 162 161 158 155 151 146 142 139 137 135 134 134 135 135 135 134 133 131 128 126 124 123 123 123 124 125 125 126 126 126 126 125 125 124 123 122 121 121 120 119 119 119 119 120 120 122 124 127 130 132 134 135 135 133 130 126 123 120 118 117 117 117 117 117 117 116 115 114 112 111 109 108 109 111 113 114 116 116 116 116 116 116 117 117 116 114 111 109 107 107 108 110 114 118 121 124 126 126 126 125 123 122 122 122 122 123 123 122 121 119 116 113 111 109 109 109 109 111 112 114 117 120 125 130 135 140 144 147 149 152 154 155 156 157 158 158 158 158 158 159 160 160 160 160 159 160 160 161 162 163 164 164 164 165 165 166 167 168 169 171 172 174 175 175 176 175 173 169 166 162 158 155 153 152 152 151 149 146 143 139 134 130 126 122 118 115 112 109 107 105 103 101 99 97 96 95 95 96 96 96 97 97 97 99 102 105 108 110 112 113 114 115 115 116 116 116 116 117 118 119 121 122 124 125 126 127 129 129 129 129 127 125 124 123 123 124 125 127 128 130 131 132 133 134 136 139 142 145 148 150 152 153 153 153 153 151 150 148 145 144 143 142 142 142 142 142 142 142 143 144 147 149 152 155 158 161 163 165 167 168 170 172 173 173 173 171 169 167 165 164 164 164 164 164 163 161 160 159 158 158 157 155 152 149 145 142 139 136 135 134 134 134 134 134 134 134 133 132 131 131 131 132 134 137 139 142 143 144 145 145 145 144 143 142 140 138 135 133 131 130 130 131 133 135 137 138 139 141 142 143 144 145 145 144 143 141 139 138 138 140 142 145 148 150 151 151 149 148 146 144 143 143 141 140 138 136 135 134 134 134 134 134 133 131 128 125 121 118 116 115 116 118 121 124 127 129 130 130 129 128 126 125 123 122 121 121 120 119 118 117 117 117 118 119 119 119 119 119 119 119 121 122 123 123 123 124 125 128 131 134 137 140 141 142 142 141 140 138 137 136 136 136 137 137 137 136 134 132 129 125 122 119 117 115 114 113 112 111 109 108 107 106 106 106 106 106 104 102 101 100 100 101 103 104 105 107 108 108 110 112 114 116 118 120 121 122 122 123 123 124 126 130 134 139 143 147 149 151 153 154 155 157 158 159 158 156 154 152 150 148 146 144 142 141 141 141 143 146 149 152 154 156 157 158 158 157 156 155 154 153 152 152 150 149 148 147 146 146 147 148 148 148 148 147 146 146 146 145 144 144 144 145 147 149
201 201 201 200 200 200 201 202 203 205 206 207 207 207 207 206 204 202 199 196 192 188 183 179 176 174 173 172 170 168 166 163 160 158 155 152 149 146 142 140 137 136 135 135 135 136 137 139 140 141 141 141 139 137 135 133 132 131 130 130 131 132 133 136 140 144 150 155 159 161 163 165 166 167 167 167 166 165 164 162 162 161 162 162 163 164 163 162 159 156 152 148 144 141 139 137 136 136 136 136 136 136 134 132 130 127 126 125 125 125 126 127 127 127 127 127 127 126 126 125 124 123 122 121 120 119 119 119 119 119 120 121 123 126 129 131 133 134 134 132 129 125 121 118 117 116 115 115 115 115 115 115 114 112 111 109 108 107 107 109 111 113 114 114 115 115 115 115 115 115 114 113 110 108 107 107 107 110 113 117 120 123 125 125 125 124 123 122 121 122 122 122 123 122 121 119 117 114 111 110 109 109 110 111 113 115 118 121 125 130 135 140 144 147 149 151 153 154 155 156 157 157 157 157 158 158 159 159 159 159 159 159 159 160 161 162 163 163 163 163 164 164 165 167 168 169 171 172 173 174 174 173 171 168 164 161 157 154 152 151 150 149 148 145 141 137 133 129 125 121 117 114 111 108 105 104 102 100 98 97 95 95 95 95 96 96 97 97 97 99 101 104 107 110 111 112 113 114 115 115 115 115 116 116 117 118 120 121 123 124 125 127 128 129 129 128 127 125 124 123 123 123 124 126 127 129 130 131 132 134 136 139 142 145 148 150 152 153 153 153 152 151 149 147 145 143 142 141 141 141 141 141 142 142 143 144 146 149 152 155 158 160 162 164 166 168 170 171 173 173 173 171 169 167 166 165 165 165 165 164 164 163 161 160 159 159 158 156 153 150 146 143 140 138 136 136 135 135 135 136 136 135 135 134 133 133 133 134 136 138 141 143 144 145 146 146 146 145 144 143 141 139 136 134 132 131 131 132 133 136 137 139 140 141 142 143 143 144 144 144 142 141 139 138 139 140 143 146 148 150 151 151 149 147 145 144 143 142 141 139 137 136 134 133 133 133 134 134 133 131 128 124 121 118 116 115 116 118 121 124 127 129 130 130 129 128 126 125 123 122 122 121 120 119 117 117 117 117 118 118 119 119 118 119 119 119 121 122 123 123 123 124 126 128 131 135 138 140 142 143 143 142 141 139 138 138 137 138 138 138 138 137 135 132 129 126 123 120 117 116 115 114 113 112 110 108 107 107 107 107 107 107 105 103 102 101 101 103 104 105 107 108 109 110 111 113 115 117 119 121 122 123 123 124 124 125 127 130 134 139 143 147 149 151 153 154 156 158 159 159 159 157 155 153 151 149 147 145 143 142 142 142 144 147 150 152 155 157 158 158 158 158 157 155 154 153 153 152 151 150 148 147 147 147 147 148 148 148 148 147 147 146 146 145 145 144 145 146 147 149
