183 183 181 180 178 176 174 174 174 175 176 176 176 174 171 167 163 160 156 152 148 143 139 134 130 126 123 120 118 116 113 111 109 108 108 107 106 104 102 98 94 90 86 82 79 77 76 74 73 73 73 73 73 74 75 77 79 81 83 85 88 91 94 98 101 104 108 111 114 117 121 127 132 137 142 145 148 151 155 158 162 165 167 168 168 167 166 166 165 165 164 163 162 161 159 159 159 160 161 161 162 162 161 161 160 160 160 161 161 162 162 163 163 163 163 164 164 165 165 165 164 163 162 159 157 154 151 147 144 140 137 133 131 130 129 129 128 127 125 122 120 117 114 112 109 107 104 102 100 98 98 98 97 96 96 95 96 97 100 102 105 107 108 108 108 106 104 102 100 99 99 100 102 103 105 106 106 107 107 108 108 108 108 108 107 107 107 108 109 111 112 114 115 116 118 120 122 124 127 128 128 128 128 127 126 126 126 126 126 126 125 125 124 124 123 124 124 124 124 125 125 125 126 126 128 130 133 134 136 137 139 142 145 148 151 154 157 161 164 167 170 173 176 178 180 183 185 188 191 193 193 193 193 192 192 193 194 196 198 200 203 205 207 208 209 210 210 211 211 211 211 211 211 211 210 210 210 210 210 210 210 210 210 210 210 210 210 210 209 208 207 206 205 204 203 203 204 204 205 206 206 206 205 204 203 201 199 198 196 196 195 194 192 190 187 183 179 176 173 171 169 168 166 165 162 159 156 152 149 145 141 138 135 134 134 133 133 132 130 128 126 125 123 122 121 119 117 115 114 112 112 112 112 112 112 112 112 112 112 112 111 112 112 112 111 110 109 108 108 108 110 112 114 117 120 122 123 123 122 121 121 122 124 127 131 134 138 141 143 145 146 147 148 149 150 151 151 151 151 151 151 151 151 151 151 151 150 150 149 149 148 148 147 146 145 144 143 143 142 142 142 143 144 144 144 143 141 139 136 133 129 126 122 118 113 109 105 101 98 95 90 86 82 78 76 74 74 74 75 75 75 75 75 75 75 75 75 76 77 78 79 80 80 80 80 80 79 79 78 79 79 80 81 82 83 84 84 84 84 85 85 86 87 88 89 89 90 90 90 90 89 88 86 85 83 83 83 83 84 85 85 85 84 83 83 82 82 82 82 82 81 82 83 84 86 89 93 96 100 103 106 110 113 116 119 122 125 128 130 133 136 138 140 142 142 143 144 146 149 152 157 161 164 167 169 170 171 171 170 170 170 170 170 171 171 171 171 171 171 171 170 170 170 169 169 170 170 171 171 170 170 170 171 171 170 169 167 165 162 159 157 155 154 153 152 151 149 148 146 145 144 143 142 141 140 138 136 134 133 132 131 131 131 130 129 129 128 128 128 129 130 131 132 134 137 141 145 150 155 159 162 165 166 167 167 167 167 167 167 166 165 164 163 163 162 162 162 162 161 161
181 181 179 178 176 174 173 173 173 174 174 174 173 171 169 166 163 159 156 153 149 144 140 136 132 128 125 122 120 117 115 112 111 110 109 109 108 106 103 100 95 91 87 84 81 78 76 74 73 72 72 72 72 73 74 75 77 79 82 85 89 92 96 100 103 106 109 112 115 118 122 127 132 138 142 146 149 152 155 159 162 165 168 169 169 169 168 168 167 167 166 165 164 162 161 160 160 161 161 162 162 162 162 161 160 160 159 159 160 160 160 160 160 160 160 161 161 162 163 163 163 162 160 158 155 152 149 146 142 139 135 132 130 129 128 127 126 124 122 119 117 115 112 110 108 106 104 102 101 100 100 100 99 98 97 97 97 98 100 102 104 106 107 108 107 106 105 103 102 102 102 103 104 105 106 107 108 108 108 109 109 109 109 108 108 107 108 108 110 111 113 114 116 117 118 120 123 125 127 129 129 129 129 128 127 127 127 128 128 128 128 128 127 127 126 126 126 125 125 125 126 126 126 127 129 131 134 135 137 138 140 142 144 147 151 154 158 161 164 168 171 174 177 180 182 184 187 189 191 192 193 193 193 193 193 194 196 198 200 202 205 207 208 210 210 211 211 211 212 212 212 213 213 213 213 213 213 213 212 211 210 209 209 209 209 209 210 209 209 208 207 206 205 204 203 203 204 204 205 205 205 205 205 204 202 201 199 198 197 196 195 194 192 190 187 183 179 176 174 172 170 169 167 166 163 160 157 154 150 146 143 139 136 134 133 132 131 129 128 126 123 121 120 118 117 116 114 113 112 111 111 111 111 111 111 111 110 110 110 110 110 110 110 110 110 109 108 108 107 108 109 111 114 116 118 120 122 122 122 122 122 123 126 128 132 135 139 142 144 145 147 147 148 149 150 152 152 153 153 153 153 153 153 153 153 152 151 150 149 148 147 146 145 144 143 142 142 142 142 143 143 144 145 145 145 144 142 140 137 134 131 127 124 119 115 111 106 102 99 96 92 88 85 81 79 77 75 75 75 75 75 75 75 75 75 75 75 75 76 76 77 78 78 78 78 77 77 77 77 77 78 79 80 81 82 83 83 83 83 83 84 85 87 88 89 90 90 91 91 91 90 89 88 86 85 84 83 83 83 83 83 83 83 82 81 80 80 80 80 80 80 81 81 83 85 88 91 95 98 102 105 108 111 114 117 120 122 125 128 130 133 136 138 140 141 142 144 146 149 153 157 160 164 166 168 169 170 170 170 169 169 169 169 170 170 171 171 171 171 171 171 171 171 170 170 171 171 171 171 171 171 170 170 170 170 168 167 164 162 159 157 156 155 154 153 153 151 150 148 147 145 144 142 141 139 137 135 133 132 131 131 131 131 130 130 130 129 129 129 130 130 132 133 135 138 142 146 151 156 160 163 166 168 169 170 170 170 169 169 169 168 167 166 164 163 162 161 161 160 160
179 179 178 177 175 174 173 172 172 173 173 172 171 169 167 164 162 159 156 153 149 145 141 137 134 130 127 124 121 119 116 114 112 111 111 110 110 108 105 101 97 93 89 86 83 80 77 75 73 71 71 71 71 71 72 73 75 78 81 85 89 93 97 101 105 107 110 113 115 118 122 127 133 138 142 146 149 152 155 159 163 166 169 170 171 171 170 170 169 169 168 167 165 163 162 161 161 161 162 163 163 163 162 161 160 159 159 158 158 158 157 157 157 157 157 158 159 160 161 162 161 160 159 157 154 151 148 144 141 137 134 131 129 127 126 124 123 121 119 116 114 112 110 108 106 104 103 103 102 102 102 102 101 100 99 98 98 99 100 102 104 106 107 107 107 106 106 105 104 104 104 105 106 106 107 108 108 109 109 109 109 108 108 108 108 108 108 109 110 112 113 115 116 117 119 121 123 125 128 129 130 130 129 129 128 128 128 129 129 130 130 131 131 130 129 128 127 126 125 125 126 126 127 128 130 132 135 136 138 139 140 142 144 147 151 155 159 163 166 169 173 176 179 182 184 187 188 190 191 192 192 192 192 193 194 195 197 199 202 204 206 208 210 211 211 211 211 211 212 212 213 214 214 215 216 216 216 215 213 211 210 209 208 208 209 209 210 210 209 208 207 206 205 204 204 204 204 204 204 204 204 204 203 203 202 201 199 198 196 196 195 193 191 189 186 183 180 177 174 173 171 170 168 167 165 162 159 155 152 148 144 140 137 135 133 131 129 127 125 123 120 118 116 114 113 112 111 111 111 110 110 110 110 110 109 109 109 108 108 108 109 109 109 109 109 109 108 107 107 107 109 111 113 115 117 119 121 121 122 122 123 125 127 130 133 136 139 142 144 145 147 148 148 149 151 152 153 154 156 156 156 156 156 155 154 153 152 150 149 147 146 144 143 142 141 141 141 142 142 143 144 145 146 146 146 145 143 141 138 135 132 129 125 121 116 111 106 103 100 97 93 90 88 84 82 79 77 76 75 74 74 74 74 74 74 74 74 75 75 75 75 75 75 75 75 75 76 76 76 76 77 78 79 81 82 82 82 82 82 82 83 84 86 87 89 90 91 91 92 92 91 91 90 88 87 85 84 83 82 82 81 81 81 80 79 79 78 78 78 78 79 80 81 82 84 87 91 94 98 101 104 107 109 112 114 117 120 122 125 128 131 134 136 138 140 142 145 148 150 154 157 161 164 166 168 169 170 169 169 169 168 169 169 169 170 171 171 171 172 172 172 172 172 172 172 172 172 172 171 171 171 170 170 169 168 167 165 163 161 159 157 156 155 155 154 154 154 152 151 149 146 144 142 140 138 136 134 133 131 130 130 130 130 131 131 131 131 130 130 131 131 133 134 136 139 143 147 152 157 161 164 167 170 171 172 172 172 172 171 171 170 169 168 166 164 162 160 159 158 158
178 178 177 176 175 174 173 172 172 172 171 171 169 167 165 163 161 159 156 153 150 146 143 139 135 132 129 126 122 120 117 115 113 112 112 112 111 109 106 103 99 95 91 88 84 81 78 75 73 71 71 71 70 70 71 72 74 76 80 85 90 94 99 103 106 109 111 113 116 119 123 128 133 138 142 146 149 152 155 159 163 166 169 171 172 172 172 171 171 170 169 168 166 165 163 162 162 162 163 163 164 163 162 161 160 159 158 158 157 156 156 155 155 155 155 156 157 159 160 160 160 159 157 155 153 150 147 143 140 136 133 130 128 126 124 122 120 118 116 114 111 109 107 106 104 103 102 103 103 104 104 104 103 101 100 99 99 100 101 102 104 105 106 107 107 107 106 106 106 106 106 107 107 107 107 108 108 109 109 108 108 108 108 107 107 107 108 109 111 112 113 115 116 117 119 121 123 126 128 129 130 130 130 129 129 129 129 129 130 131 132 133 133 133 131 130 128 126 125 125 125 126 127 128 130 133 135 137 138 139 140 142 144 147 151 155 160 164 167 171 175 178 181 184 186 189 190 190 191 191 191 191 192 193 195 196 198 201 203 205 207 209 210 211 212 212 212 211 211 212 213 214 216 217 218 219 218 217 214 212 210 208 207 207 208 209 210 210 209 209 207 206 205 204 204 204 203 203 202 202 202 202 202 201 201 200 199 197 196 195 194 192 191 188 186 182 180 177 175 173 171 170 169 168 166 163 160 157 153 149 146 142 139 136 133 130 128 125 123 121 118 115 112 110 109 108 108 109 110 110 110 110 110 109 109 108 107 107 107 107 108 108 108 109 109 108 108 107 107 107 109 110 112 115 117 118 120 121 122 123 125 127 129 131 134 137 139 142 144 145 147 148 148 149 151 152 154 156 158 159 159 159 158 157 156 154 152 151 149 147 145 143 141 140 140 140 141 142 143 144 145 146 146 147 146 145 143 141 139 136 133 130 126 122 117 111 106 102 99 97 94 92 90 87 84 81 79 77 75 74 73 73 74 74 74 74 74 74 74 74 74 73 73 73 73 74 74 75 75 75 76 77 79 80 81 82 82 82 81 81 82 83 85 87 88 90 90 91 92 92 92 92 91 90 88 86 84 82 81 80 80 79 79 78 78 77 77 77 77 77 78 79 80 81 84 87 90 94 97 100 103 106 108 110 112 115 118 120 123 126 129 132 134 137 140 143 146 149 152 155 158 161 164 166 168 169 169 169 168 168 168 168 168 169 170 170 171 171 172 173 173 173 173 173 173 173 172 172 172 172 171 170 169 168 167 165 164 162 160 158 156 155 155 155 155 156 155 155 153 150 147 144 141 139 137 135 133 132 131 130 130 130 130 131 131 132 132 131 131 132 132 133 135 137 140 144 148 152 157 161 165 168 171 173 174 174 174 174 173 173 172 171 170 167 164 161 159 157 157 157
177 177 176 176 175 174 173 172 172 171 170 169 168 166 164 162 160 158 156 154 150 147 143 140 136 133 130 127 123 120 117 115 114 113 113 112 112 110 107 104 100 96 93 89 86 82 79 76 73 71 70 70 70 70 70 71 73 75 79 84 90 95 100 104 107 109 112 114 116 119 123 128 133 138 142 146 149 152 156 159 163 167 170 171 172 173 173 173 172 172 170 169 167 166 164 163 163 163 163 164 164 164 163 162 160 159 158 157 157 156 155 154 153 153 154 155 156 157 159 159 159 158 157 155 152 149 146 143 139 135 132 129 127 125 123 120 118 116 114 111 110 107 106 104 102 101 102 103 104 105 105 105 104 103 101 100 100 100 101 103 104 105 106 106 107 107 107 107 107 108 108 108 108 107 107 108 108 108 108 108 108 107 107 107 107 107 108 109 111 112 113 115 116 117 119 121 123 126 128 129 130 130 130 129 129 129 129 130 131 132 134 135 135 134 133 131 128 126 125 124 125 126 127 128 130 133 136 137 138 139 140 142 144 147 152 156 161 165 169 172 176 179 182 185 188 190 191 191 190 190 190 190 191 193 195 197 199 201 204 206 208 210 211 212 212 212 212 211 211 211 213 214 216 218 220 220 220 218 215 212 210 208 207 207 208 209 210 210 210 209 208 207 205 205 204 204 203 202 202 201 201 201 201 201 200 200 198 197 196 195 193 192 190 187 185 182 180 177 175 173 172 171 170 169 167 164 161 158 154 151 147 143 140 136 133 130 127 124 122 119 116 113 110 107 106 106 106 108 109 110 110 110 110 109 108 107 107 106 106 107 107 108 108 108 108 108 108 107 107 107 109 110 112 114 116 118 119 121 122 124 125 128 130 132 135 137 139 142 144 145 147 148 148 149 151 152 155 157 159 161 161 161 160 158 157 155 153 151 149 147 144 142 140 139 139 139 140 141 143 144 145 146 147 147 147 145 143 141 139 136 133 130 127 122 117 111 106 102 99 97 95 93 91 89 86 83 80 77 75 73 73 73 73 73 73 73 73 73 73 73 72 72 72 72 72 73 73 74 75 75 76 77 79 80 81 82 82 82 81 81 81 83 85 87 88 89 90 91 92 92 93 93 92 91 89 87 85 82 80 79 78 78 78 77 76 76 76 75 76 76 77 79 80 81 83 87 90 94 97 100 103 105 107 109 111 114 116 119 122 125 128 130 133 136 140 143 147 150 153 156 159 161 164 166 168 169 169 169 168 168 168 168 168 169 170 171 171 172 172 173 174 174 175 174 174 173 173 172 172 172 171 170 169 167 166 164 163 161 159 158 156 155 155 155 156 157 157 156 154 152 148 144 141 138 136 134 132 131 130 129 129 129 130 131 132 133 133 132 132 132 133 134 135 137 140 144 148 153 157 162 165 169 172 174 175 175 175 175 175 174 174 173 171 168 165 161 158 156 155 156
177 177 176 176 175 174 173 173 172 171 170 169 167 166 164 162 160 158 156 154 150 147 144 140 137 133 130 127 124 121 118 115 114 113 113 113 112 110 107 104 100 97 93 90 86 83 79 76 73 71 70 70 70 69 69 70 72 75 79 84 90 95 100 104 107 110 112 114 116 119 123 128 133 138 142 146 149 152 156 159 163 167 170 172 173 173 173 173 173 172 171 169 168 166 164 163 163 163 164 164 164 164 163 162 160 159 158 157 156 155 154 153 153 153 153 154 156 157 158 159 159 158 157 155 152 149 146 142 139 135 132 129 127 124 122 120 117 115 113 111 109 107 105 103 102 101 102 103 104 105 106 105 104 103 102 101 100 101 101 103 104 105 106 106 107 107 107 107 108 108 108 108 108 108 107 108 108 108 108 108 107 107 107 107 107 107 108 109 111 112 113 115 116 117 119 121 123 126 128 129 130 130 130 129 129 129 129 130 131 133 134 135 136 135 134 131 129 126 125 124 125 126 127 128 131 133 136 137 139 139 140 142 144 147 152 156 162 166 169 173 176 180 183 186 189 191 191 191 190 190 190 190 191 193 195 197 200 202 204 206 208 210 211 212 212 212 212 211 211 211 213 215 217 219 220 221 220 218 215 212 209 207 207 207 208 209 210 210 210 209 208 207 206 205 205 204 203 202 201 200 200 200 200 200 200 199 198 197 196 194 193 192 190 187 185 182 180 177 175 173 172 171 170 169 167 164 161 158 155 151 148 144 140 137 133 130 126 124 121 119 115 112 109 107 105 105 106 107 109 110 110 110 110 109 108 107 106 106 106 106 107 107 108 108 108 108 107 107 107 108 109 110 112 114 116 118 119 121 122 124 126 128 130 133 135 137 139 142 144 145 147 148 148 149 151 152 155 157 160 161 162 162 161 159 157 155 153 152 149 147 144 142 140 139 138 139 140 141 143 144 145 146 147 147 147 145 144 142 139 137 134 130 127 122 117 111 106 102 99 97 95 93 92 90 87 84 80 77 75 73 73 73 73 73 73 73 73 73 73 72 72 71 71 71 71 72 73 74 75 75 76 77 78 80 81 82 82 81 81 81 81 82 84 86 88 89 90 91 92 92 93 93 93 92 90 87 85 82 80 78 78 78 77 77 76 75 75 75 75 76 77 78 80 81 83 87 90 94 97 100 103 105 107 109 110 113 116 119 122 124 127 130 133 136 140 143 147 150 153 156 159 162 164 166 168 169 169 169 168 168 167 168 168 169 170 171 171 172 172 173 174 175 175 175 174 174 173 172 172 172 171 170 169 167 166 164 162 161 159 157 156 155 155 155 156 157 157 157 155 152 148 144 141 138 135 134 132 131 130 129 129 129 130 131 132 133 133 133 133 133 133 134 136 138 140 144 148 153 157 162 166 169 172 174 175 175 175 175 175 175 174 173 171 168 165 161 157 155 155 155
177 177 177 176 175 174 173 173 172 172 170 169 168 166 164 162 160 158 156 154 151 147 144 140 137 133 130 127 124 121 117 115 114 113 113 112 111 109 106 103 99 96 92 89 86 82 79 75 73 71 71 70 70 70 70 71 72 75 79 84 90 95 100 104 107 110 112 114 117 119 123 128 133 138 142 145 148 152 155 159 163 166 169 171 172 173 173 173 172 172 170 169 167 166 164 163 163 163 163 164 164 164 163 162 160 159 158 157 156 155 154 154 153 153 153 154 156 157 158 159 158 158 156 154 152 149 146 142 139 135 132 129 126 124 122 120 118 116 113 111 109 107 106 104 102 101 102 103 104 105 105 105 104 103 101 101 100 101 101 103 104 105 106 106 107 107 107 107 107 108 108 108 108 108 108 108 108 108 108 108 107 107 106 106 107 107 108 109 111 112 114 115 116 117 119 121 123 125 127 129 129 129 129 129 129 129 129 130 131 132 134 135 135 135 133 131 128 126 125 124 125 126 127 129 131 134 136 138 139 140 141 143 145 148 152 157 162 166 169 173 176 180 183 186 188 190 191 191 191 190 190 190 191 193 195 197 200 202 204 206 208 210 211 212 212 212 212 211 211 211 213 215 217 219 220 221 220 218 215 212 210 208 207 207 208 209 210 210 210 209 208 207 205 205 204 204 203 202 201 201 201 201 201 200 200 199 198 197 196 194 193 191 189 187 184 182 179 177 175 173 172 171 170 169 167 164 161 158 154 151 147 144 140 136 133 129 126 123 121 118 115 112 109 107 105 105 106 107 108 110 110 110 109 108 107 107 106 106 106 106 106 107 107 108 108 108 107 107 107 108 109 110 112 114 116 118 119 121 122 124 126 128 130 133 135 137 139 141 143 145 147 148 149 150 151 153 155 157 159 161 162 161 160 159 157 155 153 151 149 147 144 142 140 139 138 139 140 142 143 144 145 146 147 147 147 145 143 141 139 136 133 130 127 122 117 112 106 102 99 97 95 94 92 90 87 84 80 77 75 73 73 73 73 73 73 73 73 73 73 73 72 72 72 71 72 72 73 74 75 75 76 77 78 80 81 82 82 81 81 81 81 82 84 86 88 89 91 91 92 92 93 93 92 91 89 87 84 82 80 78 78 78 77 77 76 76 76 76 76 77 78 79 80 81 84 87 90 94 97 100 103 105 107 109 111 114 116 119 122 125 128 131 133 136 140 143 147 150 153 156 159 162 164 166 168 169 169 169 168 168 168 168 169 169 170 171 172 172 173 174 174 175 175 175 175 174 173 173 173 172 172 170 169 167 165 164 162 161 159 158 156 155 155 155 156 157 157 156 154 152 148 145 141 138 136 134 132 131 130 130 129 130 130 131 133 133 133 133 133 133 133 134 135 137 140 144 148 153 157 162 165 169 172 174 175 175 175 175 175 174 174 173 171 168 164 161 157 155 155 155
178 178 177 177 176 175 174 174 173 172 171 170 168 166 164 162 161 159 157 154 151 148 144 141 137 134 130 127 124 120 117 115 113 112 111 110 109 107 104 100 97 93 90 87 83 80 77 75 73 72 71 71 71 70 70 71 73 76 80 85 91 96 100 104 108 110 113 115 118 120 124 128 133 137 141 144 147 150 154 157 161 164 167 169 171 171 172 172 171 170 169 168 166 165 163 162 162 162 163 163 164 163 162 161 160 159 158 157 156 156 155 155 154 154 154 155 155 156 157 158 157 157 156 154 151 148 145 142 138 135 131 128 126 124 123 121 119 117 115 112 111 109 107 105 104 103 102 103 103 104 104 104 103 102 101 100 100 101 101 102 103 104 105 106 106 106 106 106 106 106 107 107 107 108 108 108 109 108 108 107 106 106 106 106 106 107 109 110 112 113 114 115 116 117 119 120 122 124 126 127 127 127 127 127 127 127 128 128 129 131 132 133 133 133 131 130 128 126 125 125 125 127 128 130 133 136 138 140 141 142 144 145 147 150 154 158 163 166 170 173 176 179 182 184 187 189 190 191 191 191 191 191 192 194 195 197 199 202 204 206 208 210 211 212 212 212 212 211 211 212 213 215 217 218 220 220 220 218 216 213 211 209 208 208 209 210 210 210 210 209 208 206 205 204 204 203 203 203 202 202 202 202 201 201 200 200 198 197 195 194 192 190 188 186 183 181 179 177 175 173 172 170 170 168 166 163 160 157 154 150 147 143 139 136 132 128 124 121 119 117 114 111 109 107 106 105 106 106 107 108 108 108 108 107 106 105 105 105 105 105 105 106 106 106 106 107 107 107 107 108 109 110 112 115 117 118 120 121 122 124 125 128 130 132 135 137 139 141 143 145 147 148 149 151 152 153 155 157 159 160 160 160 159 158 156 154 152 150 148 146 144 142 140 139 138 139 140 142 144 145 146 146 147 147 146 144 143 141 138 136 133 130 126 122 117 112 108 104 101 99 96 95 93 90 87 84 80 77 75 73 73 73 73 73 73 74 74 74 74 73 73 73 73 73 73 73 74 75 75 76 76 77 79 80 81 81 81 81 81 80 81 82 84 86 88 90 91 92 93 93 93 92 92 90 88 86 84 82 80 78 78 78 78 78 78 77 77 77 78 78 79 80 81 83 85 88 91 95 98 101 103 106 108 110 112 115 117 120 123 126 129 132 134 137 140 143 146 149 151 155 158 161 164 167 169 170 170 170 170 169 169 169 170 171 172 172 173 173 174 175 175 176 176 176 176 175 175 174 174 174 173 171 169 167 165 163 162 160 159 158 157 156 156 156 156 156 156 155 153 150 147 145 142 139 137 136 134 132 131 130 130 130 131 132 133 134 134 134 133 133 133 133 134 136 139 143 148 152 157 161 165 168 170 172 173 173 173 173 173 173 173 172 170 167 164 160 157 155 155 155
179 179 179 178 177 176 175 175 174 173 172 170 169 167 165 163 162 160 158 155 152 148 145 141 138 134 131 127 124 120 117 114 112 110 109 107 105 103 100 97 93 90 87 83 80 78 76 74 73 72 72 72 72 71 71 72 74 77 81 86 91 96 101 105 108 111 114 116 119 122 125 129 133 136 140 143 146 149 152 155 159 162 165 167 168 169 170 170 169 169 168 166 165 163 162 161 161 161 162 163 163 163 162 161 159 158 157 157 157 156 156 156 156 156 156 155 155 155 156 156 156 155 154 153 151 148 145 141 138 134 131 128 126 124 123 121 120 118 116 114 112 110 109 107 105 104 103 103 102 102 102 102 102 101 101 100 100 101 101 102 103 104 104 105 105 105 104 104 104 104 105 106 107 107 108 109 109 108 107 106 105 104 104 105 106 108 109 111 112 114 114 115 116 117 119 120 121 122 123 124 124 124 124 125 125 125 125 126 127 128 129 130 130 130 129 128 126 125 125 125 126 128 130 133 135 138 141 143 144 146 147 149 151 154 157 160 164 167 171 174 176 179 181 183 185 187 189 191 192 192 193 193 193 194 196 197 199 201 204 206 208 209 211 212 212 212 212 211 211 212 213 215 216 218 219 220 219 218 216 214 212 211 210 210 210 210 210 210 210 209 207 206 205 204 203 203 202 203 203 203 203 203 202 201 201 199 198 196 195 193 191 188 186 184 182 180 178 176 175 173 171 170 169 167 165 162 159 156 153 149 146 142 138 134 130 126 122 119 116 114 112 111 109 108 106 106 105 105 105 106 106 106 105 105 104 104 104 103 103 103 103 104 104 104 105 105 106 106 107 107 109 111 113 115 117 119 120 121 122 123 125 127 129 132 134 136 138 141 143 145 147 149 150 152 153 154 156 157 158 159 159 158 157 156 154 152 150 149 147 145 143 141 140 139 138 139 141 142 144 145 146 146 146 146 145 143 142 140 137 135 132 129 125 121 117 113 109 106 103 100 98 96 93 91 88 84 81 77 75 73 72 73 73 73 74 74 74 74 74 74 74 74 74 74 75 75 75 76 76 77 77 78 79 80 80 81 81 81 80 80 81 82 84 86 88 90 92 93 94 93 93 92 90 89 87 85 83 81 80 79 78 78 79 79 79 80 80 80 80 81 81 83 84 85 87 90 93 96 99 102 104 107 109 111 113 116 119 122 125 128 131 134 136 138 140 142 144 147 150 153 157 161 165 168 170 171 172 172 171 171 171 171 171 172 173 174 175 175 176 177 177 177 177 177 177 177 177 176 176 175 174 172 169 166 164 162 161 160 159 159 158 157 157 156 155 155 154 152 150 149 147 145 143 141 140 138 136 134 132 131 131 131 132 133 135 135 136 135 134 133 133 132 133 135 138 142 147 152 157 161 164 167 169 170 171 171 171 171 171 171 171 170 169 166 163 160 157 155 155 155
181 181 180 179 178 177 177 176 176 175 173 172 170 168 166 164 163 161 159 156 153 149 146 142 138 135 131 128 124 120 116 113 111 108 106 104 101 99 95 92 89 86 83 80 77 75 74 73 73 73 73 73 72 72 72 73 75 78 82 87 92 97 101 105 108 112 115 118 121 124 127 130 133 136 139 142 144 147 150 153 157 159 162 164 165 167 167 168 167 167 166 164 163 161 160 160 160 160 161 162 162 162 161 160 159 158 157 157 157 157 157 158 158 158 157 156 155 154 154 154 154 154 153 152 150 147 144 140 137 133 130 127 125 123 123 122 121 120 118 116 114 112 110 109 107 105 104 102 101 100 100 100 100 100 100 100 100 100 101 101 102 103 103 104 104 103 103 102 102 102 103 104 106 107 108 109 109 108 107 105 104 103 103 104 106 108 110 112 113 114 115 116 116 117 118 119 120 121 121 121 121 121 121 122 122 123 123 123 124 125 126 127 127 127 126 126 125 124 124 125 127 129 132 135 138 141 144 146 148 149 151 153 155 157 160 163 166 169 172 175 177 178 180 182 184 186 188 191 193 194 194 194 195 195 196 198 199 201 203 205 207 209 210 211 212 212 212 211 212 212 213 214 216 217 218 219 218 217 216 215 214 213 212 212 211 211 211 210 210 209 207 206 204 203 202 201 202 202 203 203 204 203 203 202 200 199 197 196 194 192 189 186 184 182 180 178 177 176 174 173 171 169 168 166 164 161 158 155 152 148 145 141 137 133 128 124 119 116 113 112 110 110 109 108 107 105 105 104 103 103 103 103 103 102 102 102 102 102 101 101 101 101 102 102 103 104 105 106 106 107 109 111 113 116 118 120 121 122 122 123 124 127 129 131 134 136 138 140 142 145 147 150 152 153 154 155 156 156 157 157 157 157 156 154 153 151 149 147 145 144 142 141 139 138 138 139 141 143 144 146 146 146 146 145 144 142 140 138 136 134 131 127 124 121 118 114 111 108 105 102 99 97 94 91 88 85 81 78 75 73 72 72 73 73 74 74 74 75 75 75 76 76 76 76 76 76 77 77 78 78 79 79 80 80 81 81 81 81 81 81 81 82 83 85 88 90 92 94 94 94 93 91 89 87 86 84 82 81 80 79 79 79 80 81 82 82 83 83 83 84 84 85 86 88 89 92 95 97 100 103 105 108 110 113 115 118 121 124 127 130 133 136 138 139 140 141 143 145 147 151 156 161 165 169 172 173 174 174 173 173 173 173 174 175 176 177 177 178 178 179 179 179 179 179 179 179 179 179 178 177 176 173 169 166 163 161 160 160 159 159 159 158 157 156 155 153 151 150 148 146 145 145 144 143 142 140 138 136 134 133 132 133 133 135 136 137 137 137 136 134 132 132 132 134 137 142 146 151 156 160 163 165 167 168 168 168 168 168 169 169 169 168 167 165 162 159 157 156 155 156
182 182 182 181 180 179 178 178 177 176 175 173 171 169 168 166 164 163 160 158 154 151 147 143 139 136 132 129 125 121 116 113 110 107 104 101 98 95 91 88 85 82 80 77 74 73 72 72 73 73 74 74 73 73 73 74 76 80 84 88 93 97 101 105 109 112 116 119 122 125 128 130 133 135 138 140 143 146 149 151 154 157 159 161 162 164 164 165 165 164 163 162 161 159 158 158 158 159 160 161 161 161 160 159 158 157 157 156 157 157 158 159 159 159 158 156 154 153 153 153 152 152 151 150 148 146 143 139 136 132 129 126 124 122 122 122 121 120 118 116 115 113 111 110 108 106 104 102 100 99 98 98 98 99 99 100 100 100 100 101 101 102 102 103 103 102 101 100 100 100 101 103 105 107 108 109 109 108 106 104 102 102 102 103 105 108 110 112 114 115 115 116 116 117 118 118 119 118 118 118 118 118 118 119 119 120 120 120 121 122 123 123 124 123 123 123 123 124 124 126 128 131 134 138 141 145 147 149 151 153 155 158 159 161 163 166 168 171 174 176 178 179 180 181 183 185 188 191 193 195 196 196 196 196 197 198 199 201 203 205 207 209 210 211 211 211 211 211 211 212 213 214 215 216 217 217 217 217 216 215 214 214 213 213 212 212 211 211 210 209 207 205 203 202 200 200 200 201 202 203 203 203 202 201 199 197 196 194 192 190 187 184 182 180 178 176 175 175 173 172 170 169 167 165 163 160 157 154 151 147 144 140 136 132 126 121 117 113 111 109 108 108 108 107 106 105 103 102 101 100 100 100 100 100 100 100 100 100 100 99 99 99 99 100 101 102 103 105 106 107 109 111 113 116 118 120 122 122 123 123 124 126 129 131 134 136 138 140 142 145 148 150 153 154 156 156 156 156 156 156 156 155 154 153 151 149 147 146 144 143 141 140 139 138 138 139 140 142 144 146 146 146 145 144 143 141 139 137 135 132 129 126 123 120 117 115 112 109 106 104 100 97 94 91 88 85 81 77 75 73 72 72 73 73 74 74 75 75 75 76 77 77 78 78 78 78 78 79 79 80 81 81 81 82 82 82 82 82 82 82 82 82 83 85 88 91 93 94 95 94 93 90 88 86 85 84 82 81 81 80 80 80 81 83 84 85 86 86 86 87 87 88 89 90 92 95 97 100 102 104 107 110 112 114 117 120 122 125 129 132 135 138 140 141 141 141 142 143 146 150 155 161 166 170 173 175 176 176 175 175 175 175 176 177 178 179 180 180 181 181 181 181 181 181 181 181 181 181 180 179 177 174 170 166 163 160 159 159 159 160 160 159 158 156 154 152 149 147 145 144 144 144 145 144 144 142 140 138 136 134 134 134 135 136 138 139 139 138 137 135 133 132 132 133 137 141 146 151 156 159 161 163 164 165 165 165 165 165 166 166 166 166 165 164 161 159 157 155 155 156
184 184 183 182 181 180 180 180 179 178 176 175 173 171 169 168 166 164 162 159 156 152 148 144 141 137 134 130 126 121 116 113 109 106 102 99 95 92 89 86 83 80 77 75 73 71 71 72 73 74 74 74 74 74 74 75 77 80 84 89 93 98 102 106 109 112 116 119 122 125 128 131 133 135 137 140 142 145 147 150 152 155 156 158 160 161 162 162 162 162 161 160 159 158 157 157 157 158 159 160 161 160 160 159 158 157 156 156 156 157 158 159 159 159 158 156 154 152 151 151 151 151 150 149 147 144 141 138 135 131 128 124 122 121 121 121 121 120 118 116 114 112 111 110 108 106 104 101 99 98 97 97 98 98 99 99 99 100 100 100 100 101 101 102 102 101 100 99 99 99 100 102 104 106 108 109 108 107 105 103 101 101 101 103 105 108 110 113 114 115 115 115 115 116 117 117 117 117 116 116 115 116 116 116 117 117 118 118 118 119 120 120 121 121 121 122 122 123 124 126 129 133 137 140 144 147 150 152 155 157 159 161 163 165 167 169 171 174 177 179 180 181 181 182 184 186 189 192 194 196 197 197 197 197 197 198 199 201 202 204 206 208 209 210 210 210 210 210 210 211 212 213 214 215 216 216 216 216 215 215 215 214 214 214 213 212 212 211 210 209 207 205 203 201 199 198 198 199 200 201 202 201 200 199 197 195 194 192 190 187 185 182 179 177 176 175 174 173 172 171 169 168 166 164 162 159 156 153 150 146 143 139 135 130 125 120 115 111 109 107 107 107 107 106 105 103 102 100 99 98 97 97 97 97 98 98 98 98 98 98 97 97 98 98 99 101 102 104 105 107 108 111 113 116 118 121 122 122 123 123 124 126 129 131 134 136 138 140 142 145 148 151 153 155 156 157 156 156 155 155 155 154 153 152 150 148 146 144 143 141 140 139 138 137 137 138 140 142 144 145 146 146 145 144 142 140 138 136 134 131 128 125 122 119 117 115 112 110 107 104 101 97 94 91 88 84 81 77 74 72 72 72 72 73 74 74 75 75 76 77 77 78 79 79 79 79 79 80 81 82 83 83 84 84 84 84 84 84 84 83 83 83 84 86 88 91 93 94 95 94 92 90 88 86 85 84 83 82 82 81 81 82 83 84 86 87 88 89 89 89 90 91 92 93 95 97 99 102 104 106 109 111 113 116 118 121 124 127 130 133 136 139 141 142 142 141 142 143 146 150 155 161 167 171 174 176 177 178 177 177 177 177 178 179 180 182 182 183 183 183 184 184 184 184 184 184 184 183 182 181 178 174 170 166 162 160 159 159 159 160 160 159 158 155 153 150 147 145 143 142 143 144 145 145 144 143 141 139 137 135 135 135 136 138 139 140 140 140 138 136 134 132 132 134 137 141 146 151 155 158 160 161 162 162 162 162 162 163 163 164 164 164 164 162 160 158 156 155 155 156
185 185 184 184 183 182 182 181 181 180 178 177 175 173 172 170 168 166 164 161 157 153 149 146 142 138 135 131 127 122 117 113 109 105 101 97 94 90 87 84 81 79 76 74 72 71 71 71 73 73 74 74 74 74 74 75 78 81 85 89 94 98 102 106 109 112 116 119 122 125 128 131 133 135 137 140 142 145 147 149 151 153 154 156 157 158 159 160 160 159 159 158 157 156 156 156 156 157 158 159 160 160 159 158 157 156 156 156 156 157 158 158 159 158 157 155 153 151 150 150 150 149 149 148 146 143 140 137 133 130 127 123 121 120 119 119 119 118 116 114 113 111 110 108 107 105 103 101 99 97 97 97 97 98 98 98 99 99 99 99 100 100 100 101 101 100 99 98 98 98 99 101 103 105 106 107 107 106 104 102 101 100 101 102 105 108 110 112 113 114 114 114 114 115 115 116 116 115 115 114 114 114 114 115 115 115 116 116 116 116 117 118 118 119 119 120 121 123 125 127 131 135 139 143 147 150 153 155 157 160 162 164 166 168 170 172 174 177 180 182 183 184 184 185 186 188 190 193 195 197 198 198 197 198 198 198 199 200 202 204 205 207 208 209 209 209 209 209 209 210 211 212 213 214 215 215 215 215 215 214 214 214 214 214 213 213 212 211 210 209 207 205 202 200 198 196 196 197 197 198 198 198 197 196 194 192 191 189 187 185 182 179 177 175 174 173 173 172 171 170 168 167 165 163 161 158 155 152 149 145 142 138 134 129 124 119 114 110 108 106 105 105 105 104 103 101 100 98 96 95 95 95 95 95 96 96 96 96 96 96 96 96 97 97 98 100 101 103 105 106 108 110 113 116 118 120 121 122 122 123 124 126 129 132 134 137 139 141 143 146 148 151 153 155 156 156 156 155 155 154 154 154 153 152 150 148 146 144 142 141 139 138 137 136 136 137 139 141 143 144 145 145 144 143 141 139 138 136 133 131 128 125 121 118 116 114 111 109 106 103 100 97 94 91 87 84 80 77 74 72 71 71 72 73 73 74 75 75 76 77 78 78 79 79 80 80 81 82 83 84 85 86 86 87 87 87 87 87 86 86 85 85 85 87 88 91 92 94 94 93 92 90 88 86 85 85 84 84 83 83 83 84 85 86 88 90 91 91 91 92 92 93 94 96 97 100 102 104 106 108 110 113 115 117 120 122 125 128 131 134 137 140 142 143 142 142 142 143 146 150 156 162 167 172 176 178 179 179 179 179 179 179 180 181 182 184 184 185 185 185 186 186 186 186 186 186 185 185 183 182 179 175 170 166 162 160 159 159 159 159 159 158 156 154 152 149 146 143 142 141 141 142 144 144 144 143 142 140 138 137 136 137 138 139 140 141 142 141 140 137 135 134 134 135 138 142 146 150 154 157 158 159 160 160 160 160 160 160 161 162 162 162 162 161 159 157 156 155 155 156
186 186 185 185 184 183 183 183 183 182 181 180 178 176 174 172 170 168 165 162 158 155 151 147 144 140 137 133 128 123 118 113 109 105 101 97 94 90 87 84 81 79 77 75 73 71 71 72 72 73 73 73 73 73 74 76 78 82 86 90 94 99 102 106 109 112 115 118 121 124 127 130 132 135 137 140 143 144 146 148 149 150 152 153 154 156 157 157 157 157 157 156 155 155 154 154 155 156 157 158 158 158 157 157 156 155 155 154 155 156 156 157 157 157 155 154 152 150 149 149 148 148 147 147 145 142 140 136 133 129 126 123 120 119 118 117 117 116 114 112 111 109 107 106 105 103 101 100 98 97 97 97 97 97 98 98 98 98 98 98 99 99 100 100 100 100 99 98 97 97 98 100 102 104 105 106 106 105 103 102 101 100 101 103 105 108 110 111 113 113 113 113 113 113 114 114 114 114 114 113 113 113 114 114 114 114 114 114 114 114 115 115 116 116 117 119 120 123 125 128 132 137 141 145 149 153 155 158 160 162 165 167 169 171 173 175 177 179 182 184 185 186 187 188 189 190 192 194 196 197 198 198 198 198 198 198 199 200 201 203 204 205 206 207 207 208 208 208 208 209 209 211 212 213 214 214 214 214 213 213 213 213 213 213 213 213 212 211 210 208 206 204 201 199 196 195 194 194 194 194 194 194 193 191 190 188 187 185 183 181 179 177 175 173 173 172 171 171 171 169 168 166 164 162 160 157 154 151 148 145 141 137 133 129 124 119 114 110 108 106 105 104 104 103 102 100 98 96 94 93 93 93 93 93 94 94 95 95 95 95 96 96 96 97 98 99 101 103 104 105 107 110 112 114 117 119 120 121 121 122 123 126 129 132 135 137 140 142 144 146 149 151 153 154 155 155 155 154 154 153 153 153 152 151 149 148 146 143 142 140 139 137 136 135 135 136 138 140 142 143 144 144 143 142 141 139 137 135 133 131 127 124 121 118 115 112 109 106 104 101 99 96 93 90 87 84 80 77 74 72 71 71 72 73 73 74 75 76 76 77 78 79 80 80 81 82 83 84 86 87 89 89 90 90 90 90 90 90 90 89 89 88 88 88 89 91 92 93 93 92 91 90 89 88 88 87 87 86 86 85 85 86 87 89 91 92 93 94 94 94 95 95 96 97 99 102 104 106 109 111 112 115 116 118 121 123 126 129 132 135 138 141 143 143 143 143 143 144 146 151 156 162 168 173 176 178 180 180 180 180 180 180 181 183 184 185 186 187 187 187 187 187 187 187 187 186 186 185 183 181 178 174 170 166 163 161 160 159 159 158 157 156 155 152 150 147 145 142 140 140 140 141 142 143 143 143 142 141 140 139 138 139 139 141 142 142 143 142 141 139 137 136 136 137 139 142 146 149 152 154 155 156 157 157 157 157 157 157 158 159 159 159 159 159 157 156 155 154 154 155
187 187 186 186 185 184 184 184 184 184 184 183 182 180 178 175 172 169 166 162 159 155 152 148 145 142 138 134 129 124 118 114 109 105 101 98 95 92 88 86 83 80 78 76 75 73 72 72 72 72 72 72 72 73 75 77 79 83 87 91 95 99 102 106 109 111 114 117 119 122 125 129 132 135 138 141 143 144 145 146 147 148 149 150 151 153 154 155 155 155 155 154 154 153 153 153 154 154 154 155 155 155 155 154 154 154 153 153 153 154 154 155 155 154 153 152 150 148 148 147 147 147 146 146 144 142 139 136 133 130 126 123 121 119 117 116 115 114 112 110 108 106 104 103 101 100 99 99 98 98 98 98 97 97 97 97 97 97 98 98 99 99 100 100 100 99 99 98 98 98 98 100 101 103 104 105 105 104 103 102 102 102 102 104 105 107 109 111 111 112 112 112 111 111 112 112 113 113 113 114 114 114 114 113 113 113 113 112 112 112 112 113 113 114 115 117 120 123 126 130 134 139 143 148 152 155 158 160 163 165 167 170 172 174 175 176 178 180 183 185 187 189 190 191 192 193 194 195 196 197 197 197 197 197 197 198 198 199 200 201 202 203 204 204 205 206 206 207 207 208 208 210 211 212 213 214 213 213 212 212 212 212 212 212 212 212 211 210 209 207 206 203 201 198 196 193 191 190 190 189 189 189 188 187 185 184 182 181 180 178 176 175 173 172 171 171 171 171 170 169 168 166 164 162 159 156 153 150 147 144 140 136 132 128 124 119 115 112 109 107 105 104 103 102 100 98 96 94 92 91 91 91 91 92 92 93 94 94 95 95 96 96 97 97 98 99 101 102 104 105 107 109 111 113 115 117 118 119 120 121 122 125 128 132 135 138 142 144 146 148 149 151 152 152 153 153 153 153 152 152 152 152 151 151 149 148 146 144 142 140 138 137 135 134 134 135 137 139 140 142 143 143 143 142 141 139 137 135 133 131 128 125 121 118 114 110 107 104 101 99 97 95 93 90 88 84 80 77 74 72 71 71 72 73 74 75 76 76 77 78 79 80 80 81 82 83 85 87 89 91 92 93 93 93 93 93 93 93 93 93 92 92 91 91 91 91 91 91 91 91 91 91 91 91 91 91 90 89 88 88 88 88 89 91 93 95 96 97 97 96 96 96 97 98 100 103 106 108 111 113 114 116 118 119 121 124 127 129 133 136 139 141 143 144 144 143 144 145 147 151 156 162 168 173 177 179 180 181 181 181 181 181 182 184 186 187 188 189 189 188 188 187 187 187 187 186 186 184 182 180 177 174 171 168 165 163 162 160 159 158 156 154 152 150 148 146 144 142 140 139 139 140 141 142 142 142 142 142 141 141 141 141 142 142 143 143 144 143 142 141 139 138 138 139 141 143 145 147 149 151 152 153 153 154 154 154 154 154 154 155 155 156 156 156 155 154 154 153 153 154
187 187 187 186 186 185 185 185 186 186 186 186 185 183 180 177 173 169 166 163 159 156 152 149 146 143 140 136 131 125 119 114 110 106 102 99 96 94 90 88 85 83 81 79 77 76 74 73 72 71 71 71 72 73 75 78 81 84 88 91 96 99 102 106 108 110 113 115 117 120 123 127 131 135 138 141 143 143 144 144 144 144 145 146 148 150 152 153 154 153 153 153 152 152 152 152 152 152 152 152 152 152 152 152 152 151 151 151 151 151 152 152 152 151 150 149 147 146 146 145 145 145 145 145 144 141 139 136 133 130 127 124 121 119 117 115 113 112 110 108 106 103 101 99 98 98 98 98 98 99 99 99 98 98 98 97 97 97 98 98 99 99 100 100 100 100 99 99 98 98 99 100 102 103 104 105 105 104 104 103 103 103 104 105 106 107 108 109 110 110 110 110 109 109 110 110 111 112 113 114 114 114 114 113 112 112 111 111 111 110 110 110 111 112 113 116 120 123 127 132 136 141 146 150 154 157 160 162 165 167 170 173 175 176 177 178 179 181 184 186 189 191 193 194 195 195 196 196 196 196 196 196 196 197 197 197 198 198 199 200 200 201 201 202 203 203 204 205 206 206 207 209 210 212 213 213 213 212 211 210 210 210 210 211 210 210 209 208 207 206 204 202 200 197 194 191 189 187 185 184 184 183 183 182 180 179 178 177 176 175 173 172 171 170 170 170 170 170 170 170 168 166 164 161 159 155 153 150 147 143 140 136 132 128 124 121 117 114 111 108 106 104 103 101 100 97 95 93 91 90 89 89 90 90 91 92 93 93 94 95 96 97 97 98 99 100 101 102 103 105 106 108 110 111 113 114 116 117 118 120 121 124 127 131 135 139 143 146 148 149 150 150 150 151 151 151 151 151 151 151 151 151 150 150 149 148 146 144 142 140 138 136 135 134 134 134 136 137 139 141 142 142 142 142 141 139 137 135 133 131 128 125 122 118 113 109 104 101 98 97 95 94 93 91 88 85 81 77 74 72 72 72 73 74 75 76 77 78 78 79 80 81 81 82 83 85 87 90 92 95 96 97 97 96 96 96 96 97 97 97 97 96 95 94 93 92 91 91 91 91 92 93 94 94 95 94 94 92 91 90 90 91 92 94 96 98 99 100 99 99 98 98 98 99 101 104 108 111 113 115 116 118 119 120 122 125 127 130 133 136 139 142 143 144 144 144 145 146 148 151 157 162 168 173 177 179 181 181 181 181 181 181 182 184 186 188 189 190 190 189 188 187 186 187 186 186 185 183 181 179 176 173 171 169 167 166 164 162 160 157 154 152 151 149 147 145 143 141 139 139 138 139 140 141 141 142 142 143 143 144 144 144 144 144 144 144 144 144 143 142 141 141 141 141 142 143 144 145 146 147 148 149 150 151 151 151 151 151 151 151 152 152 153 153 153 152 152 152 153 153
187 187 187 187 186 186 186 186 187 188 188 188 187 186 183 179 174 170 166 163 159 156 153 150 147 144 141 137 132 126 121 115 110 107 104 101 98 96 93 90 87 85 83 81 80 78 76 74 72 71 70 71 72 74 76 79 82 85 89 92 96 99 102 105 107 109 111 113 115 118 121 126 130 134 137 140 142 142 142 141 141 141 142 143 145 148 150 151 152 152 151 151 151 150 151 151 150 150 149 149 149 149 149 149 149 149 149 149 149 149 149 149 149 148 147 146 145 144 144 143 143 143 144 144 143 141 138 136 133 130 127 124 121 119 116 114 112 110 108 106 104 101 99 97 96 96 96 98 99 100 100 100 99 99 98 98 97 97 98 98 99 100 100 101 101 101 100 99 99 99 100 101 102 103 104 104 104 104 104 104 104 104 105 106 106 107 108 108 109 109 108 108 108 107 107 108 110 111 113 114 114 114 113 112 112 111 110 110 109 109 108 108 109 110 112 116 120 124 129 133 138 143 148 152 156 159 162 164 167 170 172 175 177 178 179 179 180 182 184 187 190 193 195 197 197 197 197 196 196 196 195 195 196 196 196 197 197 198 198 198 199 199 199 200 200 202 203 204 205 205 206 208 209 211 212 212 212 211 210 209 208 208 209 209 209 208 207 206 205 204 202 200 198 196 193 189 186 183 181 179 179 179 178 177 176 175 174 173 172 171 171 170 169 169 169 169 170 170 171 170 169 167 164 161 158 155 153 150 146 143 140 136 132 128 125 122 118 115 112 110 107 105 103 101 99 97 94 92 90 88 88 88 89 89 90 91 92 93 94 95 96 97 98 98 99 100 101 102 103 104 106 107 108 110 111 112 114 115 117 118 120 123 127 131 135 140 144 147 149 150 150 149 149 149 149 149 149 149 149 149 149 149 149 149 149 148 146 144 142 140 138 136 134 133 133 134 135 136 138 140 141 141 142 141 140 139 137 135 133 131 128 126 122 117 112 107 102 98 96 95 94 94 93 91 89 85 81 78 75 73 72 72 73 74 76 77 78 79 80 80 81 82 83 84 85 87 90 93 96 98 100 100 100 99 99 99 99 100 101 101 101 100 99 97 95 93 92 91 91 92 93 95 96 98 98 98 97 95 94 93 92 93 94 96 98 100 102 102 102 101 99 99 99 100 102 106 109 112 115 117 118 119 120 121 123 125 128 131 134 137 140 142 144 145 145 145 145 146 148 152 157 162 168 173 177 179 180 181 181 180 180 181 182 184 187 189 190 190 190 189 187 186 186 186 186 185 184 182 180 177 175 173 172 171 169 168 166 164 160 157 154 151 149 148 146 145 143 141 139 138 138 139 139 140 141 142 143 144 145 146 146 146 146 146 145 145 145 144 144 143 143 142 142 143 143 143 143 143 143 143 144 146 147 148 148 148 148 148 148 148 148 149 149 150 150 151 151 151 152 152
187 187 187 187 186 186 186 187 188 189 189 190 189 187 184 180 175 171 166 163 160 157 154 151 148 145 142 138 133 128 122 116 111 108 105 102 100 98 95 92 89 87 85 83 82 80 77 75 73 71 71 71 72 74 77 80 83 86 89 93 96 99 102 105 107 108 110 112 113 116 119 124 128 132 136 139 140 141 140 139 138 138 139 140 143 146 148 149 150 150 150 149 149 149 149 149 149 148 147 147 146 146 147 147 147 148 147 147 147 147 147 147 147 146 145 144 143 142 142 141 141 141 142 142 141 139 137 135 132 129 127 124 121 118 116 113 111 109 108 105 103 100 98 96 95 95 96 98 100 101 101 101 101 100 99 98 98 98 98 99 100 101 101 102 102 101 101 100 100 100 101 101 102 103 104 105 105 105 105 105 105 105 106 106 106 107 107 107 107 107 107 106 106 106 105 106 108 110 111 113 113 113 112 111 110 109 109 109 108 108 107 107 108 109 112 116 120 125 130 135 140 145 150 154 158 161 164 166 169 171 174 177 179 180 180 180 181 182 185 188 191 194 196 198 199 198 198 197 196 195 195 195 195 195 196 196 197 197 197 197 197 197 198 198 199 200 201 203 204 204 205 206 208 210 211 211 211 210 208 207 206 206 207 207 207 206 205 204 203 201 200 198 196 194 190 187 183 180 177 175 174 174 174 173 172 171 170 169 169 169 169 168 168 168 168 168 169 170 171 171 169 167 165 162 159 156 153 150 147 144 140 136 132 129 126 123 120 117 114 111 108 105 103 100 98 96 93 91 89 87 87 87 87 88 89 90 91 92 93 94 96 97 98 98 99 100 100 101 103 104 106 107 108 108 110 111 112 114 116 117 120 123 126 130 135 140 144 147 149 150 149 149 148 147 147 148 148 148 148 148 148 148 148 149 148 148 146 144 141 139 137 135 133 133 132 133 134 135 137 139 140 140 141 141 140 138 137 135 133 131 128 125 122 117 112 106 101 97 95 94 93 93 93 92 89 86 82 78 76 74 73 73 74 75 77 78 79 80 81 82 82 83 84 85 87 89 92 96 99 102 103 104 103 102 102 102 102 103 104 104 105 104 102 100 97 95 93 92 92 93 95 97 99 100 101 101 99 98 96 95 94 95 96 98 101 103 104 104 104 102 101 100 100 101 104 107 111 114 117 119 120 121 122 123 124 127 129 132 135 138 141 143 145 145 145 145 146 147 149 152 157 162 168 173 176 179 180 180 180 180 180 180 182 184 187 189 190 191 190 189 187 186 185 186 186 185 184 182 180 177 175 173 172 172 171 170 168 165 161 157 153 151 149 147 146 145 143 142 140 139 138 139 139 140 141 142 143 145 147 148 148 148 148 147 146 146 145 145 144 144 143 143 143 144 144 143 142 141 140 141 142 143 144 145 146 146 146 146 145 145 145 146 147 148 148 149 150 150 151 151
187 187 187 187 187 186 186 187 188 189 190 190 189 188 185 180 176 171 167 164 160 157 155 152 149 146 143 139 134 129 123 118 113 109 106 104 102 99 96 93 90 88 86 85 83 81 79 76 74 72 72 72 74 76 78 81 84 87 90 93 96 99 102 104 106 107 109 110 112 114 117 122 126 130 134 136 138 138 137 136 135 135 136 138 140 143 145 147 148 148 148 148 147 147 148 148 147 147 146 145 145 145 145 146 146 146 146 145 145 145 145 145 144 144 143 142 141 140 139 139 139 139 140 140 139 137 135 133 130 128 125 122 120 118 115 112 110 108 107 105 103 100 98 96 95 96 97 99 100 102 102 102 101 101 100 99 99 99 99 100 101 101 102 103 103 102 102 101 101 101 102 102 103 104 105 105 105 105 105 105 105 105 106 106 106 106 106 106 106 106 106 105 104 104 104 104 106 107 109 111 111 111 110 109 108 107 107 107 107 106 106 107 108 109 112 116 121 126 131 137 142 147 152 156 160 163 166 168 171 173 176 178 180 181 181 182 182 183 186 188 192 195 197 199 199 199 198 197 196 195 195 195 195 195 196 196 196 197 197 197 197 197 197 197 198 199 200 202 203 203 204 205 207 208 209 210 209 208 207 205 205 204 205 205 205 204 203 202 200 199 197 195 193 190 187 183 179 176 173 171 171 171 170 169 168 168 167 166 166 166 166 166 166 166 167 168 169 170 171 171 170 168 165 163 160 157 154 151 148 145 141 137 133 130 127 124 120 117 114 111 108 105 102 100 98 95 93 90 88 86 86 86 87 88 89 90 90 91 92 94 95 96 97 98 99 99 100 101 102 104 105 106 107 108 109 110 112 113 115 117 119 122 125 130 134 139 143 146 148 149 148 148 147 146 146 146 146 146 147 147 147 147 147 147 147 146 145 143 140 138 136 134 132 131 131 132 133 134 136 138 139 139 140 140 139 137 136 134 132 130 127 125 121 116 111 105 100 96 94 93 93 93 93 92 89 86 82 79 76 74 73 74 75 76 77 79 80 81 82 83 84 85 86 87 89 91 95 98 101 104 106 107 106 105 105 105 105 106 107 108 108 107 105 103 100 98 96 94 94 95 97 99 101 102 103 102 101 100 98 97 96 97 98 100 102 104 106 106 106 104 103 102 102 103 106 109 113 116 119 121 122 123 124 125 126 128 131 134 137 139 142 144 146 146 146 146 147 147 149 152 157 162 167 172 176 178 179 179 179 179 179 179 181 183 186 188 189 190 190 188 187 186 185 186 186 185 184 182 180 178 175 174 173 173 172 171 169 166 162 158 154 152 150 148 147 146 144 143 141 140 139 140 140 141 142 143 144 146 148 149 149 149 148 148 147 146 146 145 145 144 143 143 143 143 143 142 141 139 139 139 140 141 142 143 144 144 144 143 143 143 144 144 145 146 147 148 149 149 150 151
186 186 186 186 186 186 186 186 187 188 188 189 188 186 184 179 175 171 167 164 161 158 156 153 151 148 145 141 137 131 126 120 116 112 109 106 103 101 98 95 92 89 87 85 83 82 79 77 76 74 74 74 75 77 79 82 85 88 91 94 97 99 102 104 106 107 108 109 111 113 116 120 124 128 131 134 135 135 135 134 134 134 135 136 139 141 143 145 146 146 146 146 146 146 146 146 146 146 145 145 145 145 145 145 145 145 145 144 144 143 143 143 142 141 140 139 138 137 137 137 136 137 137 137 136 135 133 130 128 126 123 121 119 116 113 111 109 107 106 104 103 101 99 97 97 97 98 99 101 102 102 102 102 101 100 100 100 100 100 101 101 102 102 103 103 103 103 102 102 102 103 104 105 106 106 107 107 106 106 105 105 105 106 106 106 106 105 105 105 105 105 104 103 103 103 103 104 105 107 108 108 108 107 107 106 105 105 105 105 105 105 106 107 110 113 117 122 128 133 138 144 149 154 158 162 165 167 170 172 175 177 180 181 182 183 183 184 185 187 190 193 196 198 199 199 199 198 197 195 195 194 194 195 195 195 196 196 196 197 197 197 197 197 197 198 199 200 201 201 202 203 204 205 206 207 207 207 206 205 203 202 202 202 202 202 202 201 199 198 196 194 192 189 186 183 179 175 172 169 168 167 167 167 166 166 165 165 165 165 165 165 165 166 166 167 168 169 170 171 171 170 169 166 164 161 159 156 153 150 147 143 139 135 131 128 124 120 117 113 110 107 105 103 100 98 96 93 90 88 87 86 86 87 88 89 90 91 92 93 94 95 97 98 98 99 100 101 102 103 104 106 106 107 108 108 110 111 113 115 117 119 122 125 129 134 138 142 144 146 147 147 147 146 146 146 146 146 146 146 146 146 146 146 147 147 146 144 142 140 137 135 132 131 130 130 130 132 133 135 137 138 138 139 138 137 136 134 132 130 129 126 123 120 115 110 105 100 96 94 93 93 93 93 92 90 87 83 80 77 75 74 74 75 77 78 80 81 82 83 84 84 85 86 88 90 92 96 99 103 106 108 109 109 109 109 109 109 110 110 111 110 109 107 105 103 100 99 97 97 98 99 101 103 104 105 104 103 102 100 99 99 99 100 102 104 106 107 108 107 106 105 104 104 105 108 111 114 117 120 121 123 124 125 126 128 130 133 135 138 140 143 145 146 147 147 146 147 147 149 152 156 161 166 170 174 176 178 179 179 179 179 179 181 183 184 186 188 188 188 187 186 185 185 186 186 186 185 184 182 179 177 176 175 174 174 172 171 168 164 160 156 154 152 150 149 147 146 144 142 141 141 141 142 143 144 144 146 147 148 149 149 149 148 148 147 146 146 145 144 144 143 143 143 143 143 142 140 139 138 138 139 139 140 141 141 142 141 141 141 142 142 143 144 145 147 148 149 150 150 151
184 184 184 184 184 184 184 184 185 186 186 186 186 184 181 178 174 170 167 164 161 159 157 155 153 150 148 144 140 135 129 124 119 115 112 108 105 102 99 96 93 90 87 85 83 81 80 79 77 77 76 77 78 79 81 83 86 88 91 94 97 99 102 104 105 106 107 108 110 112 114 118 122 125 128 131 132 133 133 132 132 133 134 135 137 140 142 143 144 144 144 144 144 144 144 145 145 145 145 145 145 145 145 145 145 144 143 143 142 141 140 140 139 137 137 136 135 135 134 134 134 134 134 134 133 132 130 128 125 123 121 119 117 114 111 109 106 105 104 103 102 101 100 99 99 99 99 100 101 102 102 102 101 101 101 100 100 100 100 101 101 102 102 103 103 103 103 103 104 104 104 105 106 107 108 108 108 107 107 106 105 105 105 105 105 105 105 104 104 104 104 103 103 103 102 102 103 104 104 105 105 105 104 104 103 102 103 103 103 104 104 106 107 110 113 118 123 129 135 140 146 151 155 159 163 166 169 171 173 176 178 180 182 184 184 185 187 188 190 192 195 197 198 199 199 199 198 196 195 194 194 194 194 195 195 195 196 196 196 197 197 197 197 197 198 198 199 200 200 201 202 202 203 204 205 205 204 203 202 201 200 199 200 200 200 199 199 197 195 193 191 188 185 181 178 174 171 168 166 164 163 164 164 164 164 164 164 164 164 164 165 165 165 166 167 168 169 171 171 172 171 170 168 166 163 161 158 155 152 149 146 142 137 133 128 124 119 116 112 109 106 105 103 101 99 97 94 91 89 88 87 87 88 89 90 91 92 93 94 95 96 97 98 99 100 101 102 103 104 106 107 107 107 107 107 109 110 112 114 117 120 123 126 129 133 136 139 142 143 144 145 146 146 147 147 147 147 146 146 146 145 146 146 146 146 146 144 142 139 136 133 131 129 128 128 129 131 133 135 136 137 137 137 136 135 133 132 130 128 127 124 122 119 114 109 105 100 96 95 94 94 94 94 92 90 87 84 80 77 75 74 75 76 77 79 81 83 83 84 84 85 85 86 88 90 93 96 100 103 106 109 111 112 113 113 114 114 114 114 113 112 111 109 107 105 104 102 101 101 101 102 104 105 106 106 105 105 104 103 102 102 102 103 104 106 107 108 109 109 108 107 106 107 108 110 113 115 117 120 121 123 125 126 128 130 132 135 137 139 141 143 145 146 146 146 146 147 147 149 151 155 159 163 167 171 173 176 178 179 180 180 180 181 182 183 184 185 186 186 186 185 185 185 186 187 187 187 186 184 182 180 178 177 176 175 174 172 170 166 163 159 157 155 153 151 149 147 145 144 143 143 143 144 145 146 146 147 147 148 148 148 148 147 147 146 145 145 144 144 144 144 144 144 144 143 142 140 138 137 137 138 138 138 139 139 139 139 139 140 140 141 143 144 145 147 148 149 151 152 152
181 181 181 181 182 182 182 182 182 183 183 183 182 181 179 175 172 169 166 164 162 160 159 157 156 153 151 147 143 139 133 129 124 120 116 112 108 105 101 98 94 91 87 85 83 81 80 80 80 80 80 80 80 81 83 85 87 89 91 94 97 99 101 103 104 105 106 107 109 111 113 116 119 123 126 128 129 130 131 131 131 132 133 135 136 138 140 141 142 143 143 142 142 142 142 143 143 144 145 145 146 145 145 144 144 143 142 141 140 139 137 136 135 133 133 132 132 131 131 131 131 131 131 130 130 128 126 124 122 121 119 117 115 112 109 106 104 102 101 101 101 101 101 101 101 100 101 101 101 101 101 101 101 101 101 100 100 101 101 101 101 101 102 102 103 104 104 105 105 105 106 107 108 109 110 110 110 109 108 106 106 105 105 105 105 104 104 104 103 103 103 103 103 103 102 102 102 102 102 102 102 101 101 100 100 100 100 100 101 102 103 105 107 110 114 119 125 131 137 143 148 153 157 161 164 167 170 172 174 177 179 181 183 184 186 187 189 191 193 195 197 198 199 200 200 199 198 196 194 193 193 193 193 194 195 195 195 196 196 196 197 197 197 197 198 198 198 199 199 200 200 201 201 202 202 202 201 201 199 198 197 196 196 196 196 196 196 195 193 190 187 183 180 176 172 169 166 163 161 160 160 160 160 161 162 162 163 163 163 164 164 165 165 166 167 168 170 171 172 172 172 171 169 167 165 163 160 158 155 152 149 144 140 135 130 124 119 114 110 108 106 105 104 102 101 98 96 93 91 90 89 89 90 91 92 93 94 95 96 97 98 99 100 101 102 103 104 105 106 107 108 108 107 106 106 107 109 112 114 117 120 124 126 129 132 134 136 138 140 141 143 145 146 148 148 148 148 147 146 146 145 146 146 147 147 146 145 143 140 136 133 129 127 126 127 128 130 132 134 135 136 136 135 134 133 131 129 128 126 125 122 120 117 113 109 104 100 97 95 94 94 94 94 93 91 88 84 81 78 76 75 75 77 79 81 83 84 85 85 85 85 85 86 88 90 93 96 100 103 107 110 113 115 117 119 120 120 119 118 116 115 113 112 110 109 107 106 105 105 105 106 106 107 108 107 107 107 106 106 106 106 106 106 107 108 109 110 110 110 109 109 109 110 111 113 114 116 117 119 121 123 125 128 130 132 135 137 139 140 142 143 145 145 146 146 146 147 147 149 151 154 157 161 164 167 170 174 177 179 181 182 181 181 181 181 181 182 183 184 184 184 185 186 187 187 188 188 188 187 185 183 181 180 179 178 176 175 172 169 166 163 160 158 156 154 152 149 147 145 145 145 146 147 148 149 149 149 148 147 147 147 147 146 146 145 145 144 143 143 143 144 145 145 145 144 142 140 138 137 137 137 137 136 136 136 136 136 137 138 139 141 142 143 145 147 149 151 152 153 154
178 178 179 179 179 180 180 179 180 180 180 180 179 177 175 173 170 168 166 164 162 161 160 160 158 156 154 150 147 143 138 133 129 124 119 115 111 107 104 100 96 92 88 85 83 82 81 81 82 82 83 83 83 84 84 86 87 90 92 94 97 99 101 103 104 105 106 107 108 109 112 115 117 120 123 125 127 128 129 129 131 132 133 135 136 138 139 140 141 141 141 141 141 140 140 141 142 143 144 145 146 145 145 144 143 141 140 139 138 136 134 132 131 129 129 128 128 128 128 128 127 127 127 127 126 124 123 121 119 118 116 114 112 110 107 103 101 99 99 99 100 101 102 102 102 102 101 101 101 100 100 100 100 100 100 100 101 101 101 101 101 101 101 102 103 104 105 106 106 107 107 108 110 111 112 112 112 110 109 107 106 105 105 105 105 104 104 103 103 103 103 103 103 103 103 102 101 100 99 99 99 99 98 98 97 97 97 98 99 101 102 105 107 110 114 120 126 132 139 145 150 155 159 162 165 168 170 173 175 177 179 181 183 185 187 189 191 193 195 197 198 199 200 200 199 199 197 195 194 193 192 192 193 193 194 194 195 195 195 196 197 197 197 197 197 197 198 198 198 199 199 200 200 200 199 199 199 198 197 196 194 193 193 193 193 193 193 192 190 187 183 179 175 171 167 164 162 160 158 157 156 157 158 159 160 161 162 163 163 164 164 165 166 167 168 169 170 172 172 173 172 172 171 169 167 165 163 160 158 155 151 147 143 137 131 124 118 113 109 107 105 105 105 104 102 100 98 95 93 92 91 92 92 93 95 96 97 98 99 99 100 101 102 103 104 105 106 107 108 109 109 108 107 106 105 106 108 111 114 117 121 124 126 128 130 132 133 135 136 138 141 144 146 148 149 150 149 148 147 146 146 146 146 147 147 147 146 143 140 136 132 129 126 125 126 127 129 132 134 135 135 134 133 132 130 128 127 125 124 123 121 118 116 112 108 104 100 97 96 95 95 95 95 94 92 89 85 82 79 76 76 76 78 80 82 84 86 87 87 86 85 85 86 87 90 93 96 100 104 107 111 115 118 121 124 125 125 124 122 119 117 115 114 113 112 111 110 110 109 109 109 109 110 110 109 109 109 109 109 109 109 109 109 110 110 110 111 111 111 111 111 111 112 113 115 116 116 117 119 121 123 126 129 132 134 137 139 141 142 143 144 144 145 145 146 146 147 147 148 150 152 155 158 161 164 167 171 176 179 182 183 182 181 180 179 179 179 180 181 183 184 185 186 187 188 189 190 190 189 188 186 184 182 181 180 179 177 175 172 169 166 164 162 160 157 154 151 149 147 147 147 148 149 151 151 151 150 149 147 146 146 146 146 145 145 144 143 142 142 143 144 146 146 146 145 143 140 138 137 136 136 135 135 134 133 133 133 134 136 138 140 142 143 145 147 150 152 153 155 155
176 176 177 177 177 178 177 177 177 177 177 176 175 174 172 170 168 167 165 164 163 162 162 162 161 159 156 153 150 146 141 137 133 128 123 119 114 111 107 103 99 94 90 87 84 83 83 83 84 85 85 85 85 86 86 87 89 90 92 95 97 99 101 102 103 104 105 105 107 108 110 113 115 118 120 122 124 125 127 128 129 131 132 134 135 137 138 139 140 141 140 140 139 139 139 139 140 142 143 144 145 144 144 142 141 139 138 137 135 133 131 129 127 126 125 125 125 125 125 125 124 124 124 123 122 121 119 118 116 115 113 112 110 107 104 101 99 97 97 97 99 100 102 103 103 103 102 101 100 100 100 100 100 100 100 101 101 101 101 101 101 101 101 102 103 104 105 107 108 108 109 110 111 113 114 114 113 112 110 108 107 106 106 106 105 105 104 103 102 102 103 103 103 103 103 101 100 99 97 97 96 96 96 96 95 95 95 96 97 99 101 104 107 110 115 120 127 133 140 146 152 156 160 163 166 169 171 174 176 178 180 182 184 186 188 190 193 195 197 198 199 199 200 199 199 198 196 194 193 191 191 191 192 192 193 193 194 194 194 195 196 196 197 197 197 196 197 197 197 198 198 199 198 198 198 198 197 196 195 194 192 191 190 189 190 190 190 188 186 183 179 174 170 166 163 160 158 156 154 154 153 154 155 157 158 160 161 162 163 163 164 165 166 167 169 170 171 172 173 174 173 173 172 171 169 167 164 162 160 157 153 149 145 139 132 125 118 113 109 106 105 106 106 106 104 102 100 98 96 94 94 94 95 96 97 99 100 100 101 102 103 103 104 105 106 107 108 110 110 111 110 109 107 105 104 105 107 110 113 117 121 124 126 127 129 130 131 132 133 136 139 142 146 148 149 150 149 148 147 146 146 146 147 147 148 147 146 144 141 137 132 128 126 125 126 127 129 132 134 134 134 133 132 130 128 126 125 123 122 121 119 117 115 111 108 104 100 98 96 95 95 96 95 95 93 90 87 83 80 78 77 78 79 81 84 86 88 88 88 87 86 86 86 88 90 94 97 101 105 108 112 117 121 125 128 129 129 128 125 122 120 118 117 116 116 115 115 114 114 113 113 113 113 112 111 111 111 111 112 112 112 112 112 112 112 112 112 112 112 112 112 113 114 115 116 117 117 118 119 121 124 127 131 134 137 139 141 143 143 144 144 145 145 146 146 146 147 147 148 149 151 154 156 159 161 165 170 175 179 182 183 183 181 180 178 177 177 178 180 181 183 184 186 187 188 190 191 192 191 190 188 186 185 184 182 181 180 177 175 172 169 167 165 162 159 157 153 151 149 149 149 150 152 153 154 153 152 150 148 147 146 146 146 145 145 144 143 142 142 143 145 146 147 146 145 143 140 138 136 136 135 134 133 132 131 131 131 132 134 137 139 141 143 145 147 150 152 154 155 156
175 175 175 176 176 176 175 175 174 174 174 173 172 171 169 168 166 165 164 163 163 163 163 163 162 160 158 155 152 148 144 140 136 131 127 122 118 114 111 107 102 97 93 89 87 85 85 86 87 87 88 88 88 88 88 89 90 91 93 95 97 99 100 102 102 103 104 104 105 106 108 111 113 116 118 120 121 123 124 126 128 129 131 133 135 136 137 139 140 140 140 139 138 138 137 137 138 139 141 142 142 142 141 140 138 137 135 134 132 130 127 125 123 122 121 121 121 121 121 121 121 120 120 120 119 118 116 115 114 112 111 110 108 106 103 100 97 96 96 96 98 100 102 103 103 103 102 101 101 100 100 100 100 100 101 101 101 102 102 102 102 102 102 103 104 105 106 108 109 109 110 111 113 114 115 115 114 113 111 109 108 107 107 107 106 105 105 104 103 103 103 103 103 103 102 101 99 98 96 95 95 95 95 94 94 94 94 95 96 98 101 104 106 110 114 121 127 134 141 147 153 157 161 164 167 170 172 175 177 179 181 183 184 186 188 191 193 195 197 198 199 199 199 199 198 197 195 193 191 190 190 190 190 191 191 192 192 193 193 194 194 195 195 195 195 195 195 195 196 197 198 198 198 197 197 197 197 196 194 192 190 188 187 186 186 186 185 184 182 179 174 170 166 162 159 157 155 153 152 151 151 151 153 155 157 159 160 161 162 163 164 165 166 168 169 171 172 173 174 174 174 174 173 172 170 168 166 163 161 158 155 151 146 140 133 126 119 113 109 107 106 107 107 107 106 104 102 100 98 97 97 97 98 99 100 101 103 103 104 105 105 106 107 108 109 110 111 112 112 112 111 109 107 105 104 105 107 109 113 116 120 123 125 126 127 128 128 129 131 133 137 141 144 147 149 150 149 148 147 146 146 146 147 148 148 148 147 145 142 138 133 130 127 126 127 128 130 132 134 134 134 132 131 129 127 125 123 122 121 120 118 116 114 111 108 104 101 98 97 96 96 96 96 96 94 92 88 85 82 80 79 79 81 83 86 88 89 90 89 88 87 87 88 89 92 95 99 103 106 110 114 119 124 128 131 133 132 131 128 126 123 121 121 120 120 119 119 119 118 117 117 117 116 115 114 114 114 114 114 115 115 115 114 114 113 113 113 113 113 113 113 114 114 116 117 117 118 118 120 122 125 129 133 136 139 142 144 145 145 146 146 146 146 146 146 147 147 147 148 149 151 153 155 158 160 164 169 174 178 181 183 182 181 179 177 176 176 177 179 181 182 184 186 187 189 190 192 192 192 191 190 188 187 185 184 183 182 179 177 174 172 169 167 165 162 159 155 153 151 151 151 152 154 155 156 155 154 151 149 148 147 147 147 146 146 145 144 143 143 144 146 147 147 147 145 143 140 138 136 135 134 133 132 130 130 129 129 131 133 135 138 140 142 144 147 149 152 154 155 156
175 175 175 175 175 174 174 173 172 172 171 170 169 168 167 165 164 164 163 163 163 163 164 164 163 162 159 157 154 150 146 143 139 134 130 125 121 117 114 110 105 101 97 93 90 88 88 88 89 89 89 89 89 89 89 90 91 92 93 95 97 98 99 100 101 102 102 103 104 105 107 109 111 114 116 118 119 121 122 123 125 127 130 132 133 135 137 138 139 139 139 139 138 137 136 136 136 137 138 139 139 139 138 136 135 133 132 130 128 126 124 122 120 119 118 118 118 118 118 118 118 117 117 116 116 114 113 112 111 110 109 108 106 104 102 99 97 96 96 97 98 100 102 103 104 103 103 102 101 100 100 100 101 101 101 102 102 103 103 103 104 104 104 104 105 106 108 109 110 111 111 112 114 115 116 116 115 113 111 110 108 108 108 107 107 107 106 105 104 104 103 103 103 102 101 100 98 97 95 94 94 94 94 93 93 93 94 94 96 98 100 103 106 110 114 121 127 134 141 147 153 158 162 165 168 171 174 176 178 180 182 183 185 186 188 190 192 194 195 196 197 198 198 198 197 196 194 192 190 189 188 188 189 190 190 191 191 191 192 192 193 193 193 193 193 193 194 194 195 196 197 197 197 197 197 196 196 195 193 191 189 187 185 183 183 182 181 179 177 174 170 166 162 159 157 154 153 151 150 149 149 149 151 153 155 157 159 160 161 162 163 164 166 167 169 171 172 174 175 175 175 174 173 172 170 168 166 164 162 159 156 152 147 141 134 127 120 115 110 108 107 108 109 109 108 106 104 103 101 100 99 99 100 101 103 104 105 106 107 107 107 108 109 110 110 111 112 113 113 112 111 109 107 105 104 105 107 110 112 116 119 121 123 124 125 126 127 128 129 132 135 139 143 146 148 149 149 149 148 147 147 147 148 149 149 149 148 146 143 139 135 131 129 128 129 129 131 133 134 134 133 131 130 128 126 123 122 120 119 118 117 115 113 110 107 104 101 99 97 96 96 97 97 96 94 92 89 86 84 82 82 82 83 85 87 89 90 90 90 89 89 88 89 91 94 97 101 105 109 113 117 122 127 131 134 135 135 134 132 129 127 126 125 124 124 124 123 123 122 121 121 120 120 119 118 117 116 116 116 116 116 116 116 115 114 114 114 113 113 113 114 114 115 117 118 118 119 120 122 124 127 131 135 138 141 144 146 147 147 148 148 148 148 148 148 148 148 148 149 150 152 153 155 158 160 164 168 173 177 180 181 180 179 178 176 175 176 177 179 180 182 184 185 187 188 190 191 192 192 191 190 188 187 186 185 184 182 181 178 176 173 171 169 167 164 161 158 155 153 153 153 154 155 156 157 156 155 153 151 150 149 149 149 148 147 146 145 144 144 145 146 147 147 147 145 143 140 138 136 135 134 132 131 129 128 128 128 130 132 134 137 139 141 144 146 149 152 154 155 156
175 175 175 174 174 173 172 171 170 169 168 167 166 164 163 163 162 162 162 162 163 163 164 164 164 162 160 158 155 152 148 145 141 136 132 127 123 119 116 112 108 104 101 97 94 92 91 91 90 90 91 90 90 90 91 91 92 92 93 95 96 97 98 99 100 100 101 102 103 104 105 108 110 112 114 116 117 118 120 121 123 125 127 130 132 134 135 136 137 138 138 138 137 136 135 134 134 134 134 134 135 134 133 132 130 129 127 126 124 122 120 118 117 115 115 115 115 115 116 116 115 115 114 113 112 111 110 109 108 108 107 106 105 103 101 100 98 98 98 99 100 102 103 104 105 105 104 103 102 102 101 101 102 102 103 104 104 105 105 106 106 106 107 107 108 109 110 111 112 112 113 114 115 115 116 115 115 113 112 110 109 108 108 108 108 108 108 107 106 105 104 103 102 101 100 98 97 95 94 93 93 93 93 93 93 93 94 95 96 98 100 103 106 110 114 121 127 134 141 148 154 159 163 167 170 173 175 177 179 181 183 185 186 187 188 189 190 191 193 194 196 196 197 197 196 195 193 191 189 187 187 187 188 188 189 190 190 190 191 191 191 192 192 191 192 192 193 193 195 196 197 197 197 196 195 195 195 194 192 191 189 186 184 181 180 178 176 174 171 169 166 163 160 157 155 153 151 149 148 147 147 147 149 151 153 156 158 159 160 161 162 163 164 166 168 170 172 174 175 175 175 175 173 172 170 168 166 164 162 160 156 152 148 142 135 128 121 116 112 110 109 109 110 110 110 108 107 105 103 102 101 102 103 104 106 107 108 109 109 109 110 110 110 111 112 113 113 113 113 112 111 109 108 107 106 107 109 111 113 115 117 119 121 122 123 124 125 126 128 130 134 137 141 144 146 148 149 149 149 149 149 149 149 150 150 150 149 147 144 141 138 134 132 131 131 131 132 132 133 132 131 130 128 126 125 122 121 119 118 116 115 113 112 109 107 104 101 99 97 97 96 96 96 95 94 92 90 88 87 86 85 86 86 87 88 89 90 90 90 90 90 90 91 93 96 100 104 108 113 117 121 126 130 134 137 139 139 138 136 134 132 131 130 129 129 128 128 127 126 126 125 125 124 123 122 120 119 118 117 117 116 116 116 115 115 114 114 113 113 114 114 116 117 118 119 120 121 122 124 127 130 134 137 140 143 146 147 149 149 150 150 150 150 150 150 150 150 150 151 152 153 155 157 159 161 164 168 172 175 177 178 178 177 176 175 175 176 177 179 180 182 183 185 186 188 189 190 191 191 190 189 188 186 185 184 183 182 181 179 177 175 173 171 169 166 163 160 158 156 155 155 155 156 157 157 157 156 155 153 152 151 151 151 150 150 148 147 146 145 146 146 147 147 146 145 143 141 139 137 136 135 133 131 129 128 127 127 129 131 134 137 139 141 144 147 150 152 154 156 157
176 176 175 175 174 172 171 170 168 167 165 164 162 161 160 160 160 161 161 162 162 163 164 165 164 163 161 159 156 153 150 146 143 138 133 128 124 120 117 114 110 107 104 101 99 96 94 93 92 91 91 91 91 91 91 92 92 93 93 94 95 96 96 97 98 99 100 101 102 103 104 107 109 111 113 115 116 117 118 119 121 123 125 128 130 132 133 135 136 137 137 137 136 135 134 133 132 131 131 130 130 130 129 128 126 125 123 122 120 118 117 115 114 113 112 112 113 113 114 114 113 112 112 111 110 108 108 107 106 105 105 104 103 102 101 101 100 100 100 101 102 104 105 106 106 106 105 104 103 103 102 103 103 104 104 105 106 107 107 108 109 109 110 110 111 111 112 113 113 114 114 115 115 115 115 115 114 113 111 110 109 108 108 109 109 110 110 109 108 107 105 103 101 100 98 96 95 94 92 92 91 92 92 93 93 94 95 95 96 98 100 103 106 110 115 121 127 134 141 147 154 159 164 168 171 174 176 178 181 183 184 186 187 187 187 187 188 188 190 191 193 195 196 196 196 194 192 190 188 186 186 186 187 187 188 189 189 189 190 190 190 190 190 190 190 191 192 193 195 196 197 197 196 195 194 194 194 193 192 190 188 186 183 180 177 174 171 169 166 164 162 160 158 156 155 153 151 149 147 146 145 146 148 150 152 155 157 158 159 160 160 161 162 164 166 169 171 174 175 176 175 175 173 172 170 168 166 164 162 160 157 153 148 142 136 129 123 117 113 111 110 111 111 112 111 110 108 107 105 104 103 104 105 107 108 110 111 112 112 112 111 111 111 112 112 113 113 113 112 111 110 109 108 108 108 110 111 112 113 114 115 117 119 120 122 123 124 126 127 129 132 136 139 142 145 147 149 150 151 151 151 151 151 151 151 150 149 148 146 143 140 137 136 135 134 133 132 132 131 130 129 128 127 125 124 122 120 118 116 115 113 112 110 108 106 103 101 99 98 97 96 95 94 93 92 91 90 90 90 90 90 89 89 89 89 89 89 89 90 90 90 91 93 95 98 102 107 112 117 121 125 129 134 137 140 141 142 141 139 138 136 135 135 134 133 132 131 131 130 129 129 129 128 127 126 124 122 119 118 116 116 116 115 115 114 114 113 113 113 114 115 117 118 120 121 122 122 124 126 129 132 136 139 142 144 147 149 150 151 152 153 153 152 152 152 152 152 152 153 154 155 156 158 160 163 165 168 171 173 174 175 175 175 175 175 176 177 178 179 181 182 183 184 186 187 188 189 189 189 188 187 186 185 184 183 182 181 180 179 178 176 175 173 170 168 165 163 160 158 157 157 157 157 157 158 158 157 156 155 154 154 154 153 153 152 150 149 148 147 147 147 146 146 145 144 143 142 141 139 138 136 134 131 129 127 126 127 129 131 134 137 140 142 145 148 150 153 155 157 158
177 177 176 175 173 171 170 169 167 165 162 161 159 158 157 157 158 159 160 161 162 163 164 165 164 163 161 159 157 154 151 148 144 140 134 129 124 120 117 115 112 110 108 105 102 99 97 95 93 92 92 92 92 92 92 92 93 93 94 94 94 95 95 96 96 97 99 100 101 102 104 106 108 110 112 114 115 116 116 117 118 120 123 126 128 130 132 133 134 135 136 136 136 135 133 132 130 128 127 126 126 126 125 124 122 121 119 118 116 115 114 113 111 110 110 110 111 112 112 112 112 111 110 108 107 106 105 105 104 104 103 103 102 102 102 102 102 103 103 104 105 106 107 107 108 108 107 106 105 104 104 104 105 105 106 107 108 109 110 111 112 112 113 113 114 114 114 114 115 115 116 116 115 115 115 114 113 112 111 110 109 108 108 109 110 111 112 112 110 108 106 103 100 98 96 95 93 92 91 91 90 91 91 92 93 94 95 96 97 99 101 103 106 110 115 121 127 134 141 147 154 159 164 168 172 175 177 179 182 184 185 187 188 187 187 186 185 186 187 189 191 193 195 196 195 194 191 189 187 186 185 185 186 187 187 188 189 189 189 189 189 189 188 188 189 190 191 193 195 196 197 196 195 194 193 192 192 192 191 190 188 186 182 179 175 171 167 164 162 160 159 158 157 156 154 153 150 148 146 145 144 145 146 149 151 154 156 158 158 158 158 159 160 162 164 168 171 173 175 176 175 174 173 171 169 167 166 164 162 160 157 153 148 143 137 130 124 119 115 112 112 112 113 113 113 112 110 108 106 105 105 105 107 109 111 113 114 115 114 113 112 112 112 112 113 113 113 112 111 110 109 109 109 110 111 112 113 114 114 114 114 115 117 119 120 122 124 125 127 129 132 135 138 141 144 146 149 151 152 153 154 154 153 153 152 151 150 149 147 145 142 140 139 138 137 135 133 131 130 129 128 127 126 125 123 121 119 117 115 113 111 110 108 107 105 103 101 99 98 97 95 94 93 92 90 90 90 91 92 93 93 93 92 90 89 88 88 88 89 90 91 92 94 96 100 105 110 115 120 124 128 133 137 140 142 144 144 144 143 141 140 140 139 138 137 136 135 134 133 132 132 132 132 131 129 127 124 121 118 116 115 115 115 115 114 113 113 112 113 114 116 118 120 122 123 123 124 126 128 131 134 138 140 143 145 148 149 151 153 154 155 155 154 154 154 154 154 155 155 156 157 158 160 162 164 166 168 170 171 171 172 172 172 173 174 176 177 179 180 181 182 183 184 185 186 187 188 188 187 187 186 185 183 182 181 180 179 179 179 178 177 176 174 172 170 167 165 163 161 159 158 158 157 157 158 158 157 157 157 156 156 156 156 155 154 152 151 149 148 147 147 146 145 144 144 143 143 142 141 140 138 135 132 129 127 126 127 129 131 135 138 141 143 146 148 151 154 156 158 159
177 176 175 174 172 170 169 167 165 163 160 158 156 155 155 155 156 158 159 161 162 163 164 164 164 163 161 159 157 154 151 148 145 140 135 130 125 121 118 116 114 112 110 108 105 102 99 96 94 93 92 92 92 92 93 93 93 94 94 94 94 94 94 95 95 97 98 100 101 102 103 105 108 110 112 113 114 114 115 115 116 118 121 124 126 128 130 131 132 133 134 134 134 134 132 130 128 125 124 122 122 122 121 120 118 117 115 114 113 112 111 110 109 108 108 109 109 110 111 111 110 109 108 107 105 105 104 104 103 103 103 102 102 102 103 103 104 105 106 106 107 108 109 109 110 110 109 108 107 106 106 106 107 107 108 109 110 111 112 113 114 115 116 116 116 116 116 116 117 117 117 117 116 115 114 114 113 112 111 110 109 108 109 110 111 112 113 113 112 109 106 103 100 97 95 94 92 91 90 90 90 90 91 92 94 95 96 96 98 99 101 103 106 110 115 121 127 134 140 147 153 159 164 169 172 175 177 180 182 184 186 187 188 187 186 184 183 183 184 186 189 192 194 195 194 193 191 188 186 185 184 184 185 186 187 187 188 188 188 188 187 187 187 187 187 188 190 192 194 196 197 196 195 193 192 191 191 191 190 190 188 185 182 177 173 169 164 161 158 157 156 156 156 155 154 152 150 147 145 143 143 143 145 147 150 153 155 157 157 157 157 157 158 160 163 166 170 173 175 176 175 174 173 171 169 167 165 164 162 160 157 153 149 143 137 131 125 120 116 114 113 113 114 114 114 113 112 110 108 107 106 107 108 111 113 115 116 117 116 115 114 113 112 113 114 114 113 113 111 110 109 110 110 112 113 115 116 116 115 114 114 115 116 118 120 122 124 126 127 129 132 135 138 141 144 146 149 152 154 155 156 156 155 155 154 152 151 150 148 146 145 143 141 140 139 136 134 131 129 128 127 126 125 124 123 121 119 117 115 113 110 109 108 106 105 103 101 100 98 97 95 94 92 91 89 89 90 92 94 95 96 95 94 91 89 88 87 88 89 90 91 93 95 98 101 106 112 117 123 127 131 135 139 142 144 146 146 146 145 144 143 143 143 142 140 139 137 136 135 135 135 135 135 134 132 129 126 122 119 116 115 115 115 115 114 113 113 112 113 115 117 120 122 123 124 125 126 127 129 133 136 139 142 144 146 148 150 152 154 155 156 156 156 155 155 156 156 156 157 157 158 159 161 163 165 167 168 169 169 169 169 170 171 172 174 176 178 179 180 181 182 182 183 185 186 187 187 187 186 185 185 183 182 181 180 179 178 178 178 179 178 177 175 173 171 169 166 164 163 161 159 158 158 158 158 158 158 158 158 158 158 158 157 156 155 154 152 151 149 148 147 146 145 144 144 144 144 144 143 142 140 137 133 130 127 126 127 129 132 135 139 142 144 147 149 152 155 157 159 159
175 175 174 172 170 168 167 165 163 160 158 156 154 153 153 153 155 156 158 160 161 162 163 163 163 162 160 159 157 154 151 149 145 141 136 130 125 121 118 116 115 113 112 110 107 104 101 98 95 94 93 93 93 94 94 94 94 95 95 94 94 94 94 95 95 97 98 100 101 102 103 105 107 109 111 112 113 113 113 114 115 117 119 122 124 126 127 128 129 130 131 132 132 131 129 127 125 122 120 119 118 118 117 116 115 114 112 111 110 109 108 108 107 106 106 107 108 109 109 110 109 108 107 106 105 104 104 103 103 103 103 103 103 103 104 105 106 107 108 109 110 110 111 112 112 112 112 111 110 109 108 109 109 110 111 112 113 114 115 116 117 118 118 119 119 119 118 118 119 119 119 118 117 116 115 114 113 112 111 110 110 109 109 110 112 113 114 114 112 110 107 103 100 97 95 93 92 91 90 89 89 89 90 92 93 95 96 96 97 99 101 103 106 110 115 120 126 133 140 146 153 159 164 168 172 175 177 179 182 184 185 187 187 187 185 183 182 181 182 185 188 190 193 194 193 191 189 187 185 183 183 183 184 184 185 186 187 187 187 186 186 186 185 185 186 187 189 191 193 195 195 195 193 192 190 189 189 189 189 188 187 184 180 176 171 167 162 159 156 155 154 154 154 154 153 151 148 146 143 142 141 142 143 146 149 152 154 156 156 156 155 155 156 158 161 165 169 172 174 175 175 174 172 171 169 167 165 164 162 160 157 154 150 144 138 133 126 122 117 115 114 115 116 116 116 115 114 112 110 109 108 109 110 113 115 117 119 119 118 117 115 114 114 115 115 115 115 114 113 111 111 111 112 114 115 117 118 117 116 116 115 116 117 119 121 123 125 127 128 130 133 136 139 142 145 147 150 153 156 157 158 158 157 156 155 154 152 151 150 148 146 145 143 142 141 138 135 132 130 128 127 126 126 125 124 122 120 118 115 113 111 109 108 107 105 104 102 100 99 97 96 94 92 91 89 89 90 93 95 97 97 97 95 92 90 88 87 88 89 90 92 94 96 99 102 108 113 119 124 129 133 137 141 144 146 147 148 148 147 146 146 145 145 144 142 141 139 138 137 137 137 137 137 136 134 132 128 124 120 118 117 117 116 116 115 115 114 114 114 116 119 122 124 125 126 127 128 129 131 134 137 140 143 145 147 149 151 153 155 156 157 157 157 156 156 156 157 157 157 158 159 160 161 163 165 167 168 169 169 169 169 169 170 172 174 176 178 179 180 181 181 182 183 185 186 186 186 186 186 185 184 183 182 181 180 178 178 178 179 179 179 178 176 174 172 170 168 166 164 162 160 159 159 158 159 159 159 159 159 159 159 159 159 158 157 155 154 152 150 149 148 147 146 145 144 144 145 145 144 143 141 138 134 131 128 127 127 130 133 136 140 142 145 147 150 153 156 158 160 160
172 172 171 169 168 166 164 163 161 158 156 154 152 151 151 152 153 155 157 159 160 161 162 162 162 161 160 158 156 154 151 148 145 141 136 131 126 122 119 117 116 114 113 111 108 105 102 99 96 95 94 94 94 95 95 95 95 96 96 95 95 95 95 96 96 97 99 100 101 102 103 105 107 109 110 111 112 112 112 112 113 115 117 120 122 124 125 127 128 128 129 129 129 128 127 124 122 120 118 116 116 116 115 114 113 112 110 109 108 107 107 106 105 105 105 105 106 108 108 109 109 108 107 106 105 104 104 104 104 104 104 104 104 104 105 106 107 108 109 110 111 112 113 114 115 115 114 113 112 112 111 111 112 113 114 115 116 116 117 118 119 120 121 121 121 121 121 121 121 121 121 120 119 118 116 115 114 113 112 111 110 110 110 111 112 113 114 113 112 109 106 103 100 97 95 93 92 91 90 89 89 89 90 92 93 95 96 96 97 98 100 103 105 109 114 120 126 132 139 146 152 158 163 167 171 174 176 178 180 182 184 186 186 185 184 182 181 180 181 184 187 189 192 192 192 190 188 186 184 182 181 182 182 183 184 185 186 186 185 185 185 184 184 184 184 185 187 189 191 193 194 193 192 191 189 189 189 188 188 187 185 183 179 174 170 165 161 158 155 153 153 153 153 152 151 149 147 145 142 141 140 141 142 145 148 150 153 154 155 155 154 154 155 158 161 164 168 171 173 174 174 173 172 170 169 167 166 164 162 160 158 154 150 145 139 133 127 123 119 117 116 116 117 117 117 116 115 114 112 111 111 111 112 114 117 118 120 120 120 118 117 116 116 116 117 117 117 116 115 113 113 113 114 115 117 119 119 119 118 117 117 118 119 121 123 125 127 129 130 132 134 137 140 144 146 149 152 155 157 158 159 158 158 157 156 155 153 152 151 149 148 146 145 144 142 139 136 134 131 130 129 128 127 126 125 123 121 118 116 114 112 110 109 108 106 105 103 102 100 99 97 95 93 92 90 90 91 93 95 97 97 97 95 93 90 89 88 89 90 91 92 95 97 99 103 108 113 119 124 129 133 137 140 143 146 147 148 148 147 147 146 146 146 145 143 142 141 139 139 138 138 138 138 137 136 133 129 126 122 120 119 119 118 118 117 117 116 115 116 118 120 123 125 126 127 128 129 130 133 136 139 142 144 146 148 150 152 154 156 157 158 158 157 157 157 157 158 158 158 158 159 160 161 163 165 167 168 169 169 169 169 169 170 172 174 176 177 179 180 181 181 182 183 185 186 186 187 186 186 186 185 184 183 182 181 179 179 179 179 180 179 178 177 175 172 170 168 166 164 163 161 160 159 159 159 160 160 160 160 160 160 160 159 158 157 156 154 153 151 150 149 147 146 145 145 145 145 145 145 144 141 138 135 132 129 128 129 131 134 137 140 143 145 148 151 153 156 159 160 161
169 169 168 166 164 163 161 159 158 156 153 152 150 149 149 150 152 154 156 158 159 160 161 161 161 160 159 157 155 153 150 148 145 141 136 132 128 124 122 119 118 116 114 112 109 106 103 100 97 96 95 95 95 96 96 96 97 97 97 97 97 97 97 97 98 98 100 101 102 102 103 105 106 108 109 110 110 110 110 111 112 113 115 118 120 122 124 125 126 126 127 127 126 125 123 121 119 116 115 114 113 113 113 112 111 110 109 108 107 106 106 105 105 104 104 105 106 107 108 108 108 108 107 106 105 105 105 105 105 106 106 106 106 106 107 107 108 109 110 111 112 114 116 117 118 118 118 117 116 115 115 115 116 117 118 119 119 120 121 122 123 123 124 124 124 124 124 124 124 124 123 122 120 119 117 116 115 114 113 112 112 111 111 111 112 112 113 112 110 108 106 103 100 98 96 95 93 92 90 90 89 90 91 92 94 95 96 97 97 98 99 101 104 108 112 119 125 132 138 145 151 156 161 165 168 171 173 176 178 180 182 184 184 184 182 181 180 179 180 183 185 188 190 191 191 189 187 184 182 181 180 180 181 182 183 184 185 185 184 184 183 182 181 181 182 183 184 186 188 190 191 191 191 190 190 189 189 188 187 186 184 180 177 173 169 165 161 157 155 153 152 152 152 151 150 148 146 144 142 141 140 141 142 144 147 149 151 153 154 154 154 154 155 158 160 163 166 169 171 172 172 172 171 170 169 167 166 164 162 160 157 154 150 145 139 134 128 124 120 118 116 116 117 117 117 117 116 115 115 114 114 115 115 117 118 119 120 121 120 120 119 118 118 119 119 120 120 119 118 117 116 116 117 118 120 121 122 122 121 120 120 121 122 124 126 127 129 130 132 134 137 140 143 146 149 151 154 156 157 158 159 158 158 157 156 155 154 152 151 150 149 148 147 146 144 141 138 136 133 132 130 129 128 127 125 123 121 119 117 115 114 112 111 109 108 107 105 104 102 101 99 97 95 94 92 92 92 93 94 95 96 95 94 92 91 90 89 90 91 92 93 95 97 99 103 107 112 117 122 127 131 135 138 141 143 145 145 146 146 146 146 146 146 145 144 142 141 140 139 139 139 139 138 137 136 134 130 127 124 122 121 121 121 121 120 119 118 118 118 120 122 124 126 127 128 130 131 133 136 139 142 144 146 148 149 151 153 155 157 158 160 160 159 159 159 159 159 159 159 160 160 160 161 163 165 166 168 169 169 169 169 170 170 172 173 175 176 178 179 180 180 181 182 184 185 186 187 187 187 186 186 185 184 183 183 182 181 181 181 181 180 179 177 175 173 171 169 167 165 163 162 161 160 160 160 160 160 160 160 160 160 160 160 159 158 156 155 153 152 150 149 148 147 146 145 145 145 145 144 143 141 139 136 133 131 130 131 132 135 137 140 142 144 147 150 153 156 158 160 160
165 165 164 162 161 159 157 156 154 152 151 149 148 147 148 149 151 153 155 157 158 159 160 160 159 158 157 155 154 152 149 147 144 140 137 133 130 127 124 122 120 118 116 113 110 107 104 101 98 97 96 96 96 97 97 98 98 98 98 98 99 99 99 99 100 100 101 102 102 103 104 105 106 107 108 109 109 109 109 109 110 111 113 116 118 121 122 124 125 125 124 123 122 121 119 117 115 113 112 111 111 111 111 110 110 110 109 108 107 106 106 105 105 104 104 105 105 106 107 108 108 108 107 107 106 106 106 107 107 108 108 108 108 108 108 108 108 108 109 111 113 116 118 120 121 122 122 121 120 119 119 119 120 121 122 123 124 124 125 126 126 127 127 127 127 127 127 127 127 127 126 124 122 119 117 116 115 114 114 114 114 113 113 112 112 111 111 110 108 106 105 103 101 100 98 97 95 93 91 90 90 90 92 93 95 96 97 98 98 98 99 100 102 106 111 117 124 130 137 143 149 154 158 162 165 168 170 173 175 177 179 181 182 181 180 179 178 178 179 182 184 187 189 190 190 188 186 183 181 179 179 179 180 181 183 184 184 184 183 182 180 179 178 178 179 180 181 183 185 187 188 189 190 191 191 191 190 189 187 184 182 178 175 171 168 164 161 158 155 154 152 152 151 150 149 147 145 144 143 142 142 142 143 144 146 148 150 151 152 153 153 154 155 158 160 163 165 167 168 169 170 170 170 170 169 168 166 165 162 160 157 153 149 144 139 134 129 125 121 118 117 116 116 116 116 116 117 118 118 119 119 119 119 119 119 120 120 121 121 121 120 120 120 121 122 123 123 123 122 121 120 120 120 121 123 124 125 125 125 124 124 125 126 128 129 130 131 133 134 136 139 142 146 149 152 154 156 157 158 158 158 158 157 157 156 155 154 152 152 151 151 151 150 149 147 144 141 138 136 134 132 131 129 128 126 123 121 120 118 117 116 114 113 112 111 110 108 107 105 104 102 100 98 96 95 94 93 93 93 94 94 94 93 92 91 91 91 91 92 92 93 95 96 99 102 106 110 115 119 123 127 131 134 137 139 140 141 142 143 144 144 145 145 144 143 142 141 140 140 139 139 138 138 137 135 134 131 129 127 125 124 124 124 123 123 122 121 120 121 122 123 125 126 128 129 131 134 136 139 142 145 147 148 149 150 152 154 156 158 160 161 162 161 161 161 161 161 162 162 162 161 161 161 162 164 166 167 168 169 170 170 170 171 171 172 173 175 176 177 178 179 180 181 183 184 186 187 187 188 187 187 187 186 186 185 184 183 183 183 182 181 180 178 176 174 172 169 167 166 164 163 162 161 161 161 161 161 161 161 160 160 160 160 159 158 156 155 153 152 150 149 148 147 146 145 145 144 144 143 142 141 139 137 135 134 133 134 134 136 138 139 141 143 146 148 151 154 156 158 159
161 161 160 158 157 155 153 152 150 149 148 147 146 145 146 147 149 152 154 156 157 158 158 158 157 156 155 154 152 150 148 145 143 140 137 134 132 129 127 124 122 120 117 114 111 108 105 102 99 97 97 97 97 98 98 99 99 99 100 100 101 101 101 101 102 102 102 103 103 104 105 106 106 107 107 108 108 108 108 108 108 109 111 113 116 119 121 122 123 123 122 120 118 116 115 113 112 110 109 108 108 108 109 109 110 110 109 108 108 107 106 105 105 104 105 105 106 106 107 108 108 108 108 108 108 108 108 109 109 110 111 111 111 111 109 108 108 108 109 111 114 118 121 124 125 126 126 125 124 124 123 124 124 125 127 128 128 129 130 130 130 131 131 131 131 131 131 131 131 131 129 126 123 120 118 116 115 115 115 115 115 115 114 113 112 110 109 107 105 104 103 103 102 101 100 99 97 94 93 91 91 91 92 94 96 97 98 99 99 98 98 99 101 104 109 116 122 129 136 142 147 152 156 159 162 164 167 169 172 174 176 178 179 179 178 177 177 177 178 181 183 186 188 189 189 187 185 182 180 178 178 178 179 181 182 183 184 183 182 180 178 176 175 175 175 177 178 180 182 184 186 188 189 191 192 192 191 189 187 183 180 177 174 170 167 164 162 159 156 154 153 152 151 149 148 146 145 144 144 143 143 143 144 145 146 147 149 150 151 152 153 154 156 158 160 162 163 164 165 166 167 168 169 169 169 168 167 165 162 159 156 152 148 144 139 134 130 126 122 119 117 116 116 116 116 116 118 120 122 123 124 123 123 122 121 120 120 121 121 122 122 123 123 124 125 126 126 127 126 125 124 124 124 125 126 127 128 128 128 128 128 129 131 132 132 133 134 135 136 139 142 145 149 153 155 157 158 158 158 158 158 157 157 157 156 155 154 153 152 153 153 153 153 152 150 147 144 141 138 136 135 133 130 128 126 124 122 121 120 119 118 117 115 114 114 113 111 110 109 107 105 103 101 99 97 96 94 93 92 92 92 92 92 92 92 92 92 92 93 93 93 94 96 98 101 104 108 112 116 119 123 126 129 132 133 135 136 138 139 141 142 143 143 143 142 141 141 140 139 139 138 137 137 136 135 133 132 130 129 128 128 127 127 127 126 125 124 123 123 124 125 126 127 128 130 133 136 139 143 146 148 150 151 151 152 153 155 157 160 162 164 164 164 163 163 164 164 164 164 164 163 162 162 162 163 165 167 168 170 171 171 171 171 171 171 172 173 174 175 177 178 179 180 182 183 185 187 188 188 188 188 188 188 188 187 187 186 185 184 183 181 180 178 176 174 172 170 168 166 165 163 162 162 162 162 162 162 161 161 160 160 160 159 159 158 156 155 153 152 151 149 148 147 146 145 145 144 143 142 141 141 140 139 138 137 137 137 137 138 138 139 140 142 144 147 150 153 155 157 157
157 156 155 154 153 151 149 148 146 145 144 144 143 142 143 145 147 150 152 154 156 156 156 156 155 154 153 152 150 149 146 144 141 139 137 135 133 131 129 126 123 121 118 115 112 109 106 103 100 98 97 97 98 98 99 100 100 100 101 102 102 103 103 103 103 103 104 104 105 106 106 107 107 107 107 108 108 108 107 107 107 108 109 111 114 116 119 120 121 120 118 116 114 112 111 109 108 107 106 106 106 106 107 108 109 109 109 108 108 107 106 106 105 105 105 105 106 107 107 108 108 108 108 109 109 109 110 111 111 112 113 114 114 113 111 110 108 108 109 112 116 120 124 127 129 130 130 130 129 128 128 129 129 130 132 133 133 134 134 135 135 135 135 135 136 136 136 136 135 134 132 129 125 121 118 116 115 115 115 116 116 116 115 113 111 109 106 104 103 102 102 102 102 102 102 100 98 96 94 92 92 92 93 95 97 98 100 100 99 99 98 98 100 103 108 114 121 128 135 140 145 149 152 155 158 160 163 165 168 170 173 175 176 176 176 176 175 176 177 179 182 185 187 188 188 186 184 181 179 177 177 177 178 180 182 183 183 183 181 179 176 174 173 172 173 174 175 177 179 181 183 186 189 191 193 193 192 190 186 183 179 175 172 170 167 165 163 160 158 156 154 152 151 149 148 146 145 145 145 145 145 145 145 145 146 147 148 149 150 151 152 154 155 158 159 160 161 162 163 164 165 167 168 169 169 169 167 165 162 159 156 152 148 144 139 135 131 127 124 121 119 117 117 116 116 117 120 123 126 128 129 128 127 125 123 122 122 122 123 124 124 125 126 127 128 129 130 131 130 129 129 128 128 129 129 131 132 132 132 132 133 134 135 136 136 137 137 138 139 142 145 149 153 156 159 160 161 160 159 158 158 158 158 157 157 156 154 153 153 154 155 156 156 155 153 150 147 144 141 139 137 135 132 130 127 124 123 122 121 121 120 119 118 117 116 115 114 113 112 110 107 105 103 101 99 98 95 93 92 91 90 90 91 91 92 93 93 93 93 93 93 94 95 97 100 103 106 109 112 116 119 122 124 126 128 130 131 133 135 138 139 140 141 141 140 140 140 139 139 138 137 136 135 135 134 134 133 132 131 131 131 131 130 130 129 128 127 126 126 126 126 127 128 130 132 135 139 143 146 150 152 153 153 153 153 154 156 159 161 164 166 166 166 166 166 166 167 167 167 166 165 163 162 162 163 164 166 168 170 171 172 171 171 171 170 170 171 172 174 175 176 177 179 180 182 184 186 187 188 188 188 189 189 189 189 188 187 186 185 183 182 180 178 176 174 172 170 168 166 165 164 163 162 162 163 163 162 162 161 160 160 160 160 159 158 157 155 154 152 151 150 149 148 147 146 145 144 143 142 141 141 141 141 141 141 141 140 140 140 139 139 140 141 143 146 149 151 154 155 156
153 153 152 151 149 147 146 144 143 142 141 141 140 140 140 142 145 147 150 152 154 154 154 154 153 152 151 150 149 147 145 143 140 138 137 135 133 131 129 127 124 122 119 116 113 110 106 103 100 98 98 98 98 99 100 100 101 101 102 102 103 104 104 104 105 105 105 105 106 107 108 108 108 108 108 108 108 108 108 107 107 107 108 109 112 114 116 118 118 117 115 113 111 109 108 107 106 105 105 104 104 104 105 107 108 109 109 108 108 107 106 106 106 106 106 106 107 107 108 108 108 109 109 109 110 110 111 112 113 114 115 116 116 115 113 111 110 109 110 113 117 122 127 130 133 134 134 134 133 133 133 133 134 135 136 137 138 138 139 139 139 139 139 140 140 140 140 139 138 137 134 131 126 122 119 116 116 115 116 116 117 116 115 113 110 107 105 102 100 100 100 101 102 102 102 101 99 96 94 93 92 93 94 96 98 99 100 101 100 99 98 98 100 103 107 114 120 127 133 138 143 147 149 152 154 157 159 161 164 167 170 172 173 174 174 174 174 174 176 178 181 184 186 187 187 186 184 181 179 177 176 177 178 180 181 183 183 182 180 178 175 172 171 171 171 172 174 176 178 179 182 185 188 191 193 193 192 190 186 182 178 175 172 170 168 166 164 162 160 158 156 154 152 150 148 147 146 146 146 146 146 146 146 146 146 147 147 148 149 150 151 153 155 157 158 159 159 160 161 163 164 166 168 169 170 169 168 166 163 160 156 152 148 144 140 136 132 128 125 122 120 119 118 118 118 119 122 126 129 131 132 132 130 128 126 124 123 124 125 126 127 128 129 129 130 132 133 134 134 133 132 132 132 132 133 134 135 135 136 136 136 137 138 139 139 140 140 141 142 144 148 152 156 159 162 163 163 162 161 160 159 159 159 159 158 157 156 155 155 156 158 158 159 158 156 153 149 146 143 141 139 136 134 131 128 126 124 123 123 122 122 121 120 119 118 118 117 115 114 112 109 107 105 103 101 99 96 94 92 90 90 90 91 92 93 93 94 94 94 93 93 94 95 97 99 101 104 107 109 112 115 118 120 122 124 125 127 129 131 134 136 138 138 138 138 138 138 137 137 136 136 135 134 134 134 134 134 134 133 133 133 133 133 132 131 130 130 129 128 128 128 129 130 132 134 137 141 145 149 152 154 155 155 154 154 156 158 160 163 165 168 168 168 168 168 169 169 170 170 169 167 165 163 163 163 164 166 168 170 171 171 171 171 170 169 169 170 171 172 173 174 176 177 178 180 182 184 186 187 187 188 188 189 189 189 189 188 186 185 183 181 179 178 176 174 171 169 168 166 165 164 163 162 162 163 163 163 162 161 160 160 160 160 159 158 157 156 154 153 152 150 149 148 147 146 145 144 144 143 142 142 143 143 144 144 144 144 143 142 141 141 141 141 143 145 148 151 153 154 155
